0,0,-1.500000e-01,0,1.678900e+01
-7.202900e-02,6.822600e-02,-1.496900e-01,0,1.533300e+01
-1.227800e-02,1.310700e-01,-1.494000e-01,0,1.446600e+01
-3.274100e-03,1.306400e-01,-1.494000e-01,0,1.360400e+01
1.336900e-02,1.713800e-01,-1.492100e-01,0,1.293200e+01
2.660200e-01,1.721400e-01,-1.492100e-01,0,1.345800e+01
5.675000e-01,7.086500e-01,-1.467300e-01,0,1.477300e+01
5.746000e-01,7.445600e-01,-1.465700e-01,0,1.536800e+01
5.882400e-01,7.736700e-01,-1.464400e-01,0,1.513700e+01
6.013400e-01,8.118900e-01,-1.462600e-01,0,1.397700e+01
5.647800e-01,8.732700e-01,-1.459800e-01,0,1.233500e+01
-7.514000e-01,7.344100e-01,-1.466200e-01,0,1.196400e+01
-9.931300e-01,5.928800e-01,-1.472700e-01,0,1.284200e+01
-9.527500e-01,5.317900e-01,-1.475500e-01,0,1.320000e+01
-9.792200e-01,2.994300e-01,-1.486200e-01,0,1.213700e+01
-1.016000e+00,7.579000e-01,-1.465100e-01,0,1.242200e+01
-1.021500e+00,7.809000e-01,-1.464000e-01,0,1.188500e+01
-1.036800e+00,8.311100e-01,-1.461700e-01,0,1.027700e+01
0,0,-1.500000e-01,3.204100e-02,1.579000e+01
-4.174400e-02,8.183200e-03,-1.499600e-01,3.204100e-02,1.516700e+01
-7.202900e-02,7.027500e-02,-1.496800e-01,3.204100e-02,1.432200e+01
-1.364200e-02,1.315400e-01,-1.493900e-01,3.204100e-02,1.345000e+01
-3.274100e-03,1.321100e-01,-1.493900e-01,3.204100e-02,1.261700e+01
1.336900e-02,1.706600e-01,-1.492100e-01,3.204100e-02,1.193400e+01
2.592000e-01,1.464700e-01,-1.493300e-01,3.204100e-02,1.275200e+01
5.675000e-01,7.085200e-01,-1.467400e-01,3.204100e-02,1.424500e+01
5.746000e-01,7.389400e-01,-1.466000e-01,3.204100e-02,1.493000e+01
5.806000e-01,7.653600e-01,-1.464700e-01,3.204100e-02,1.479500e+01
5.855100e-01,7.870000e-01,-1.463700e-01,3.204100e-02,1.372800e+01
-7.235700e-01,6.725300e-01,-1.469000e-01,3.204100e-02,1.106800e+01
-1.002700e+00,5.550900e-01,-1.474400e-01,3.204100e-02,1.176100e+01
-9.527500e-01,5.286900e-01,-1.475600e-01,3.204100e-02,1.219100e+01
-1.016000e+00,7.492700e-01,-1.465500e-01,3.204100e-02,1.138400e+01
-1.021500e+00,8.092300e-01,-1.462700e-01,3.204100e-02,1.083200e+01
0,0,-1.500000e-01,6.408200e-02,9.995400e+00
4.455400e-01,4.414800e-01,-1.479700e-01,6.408200e-02,9.558100e+00
2.182700e-01,2.921600e-01,-1.486500e-01,6.408200e-02,1.052700e+01
5.675000e-01,7.013800e-01,-1.467700e-01,6.408200e-02,1.243600e+01
5.672300e-01,7.294200e-01,-1.466400e-01,6.408200e-02,1.342800e+01
5.576800e-01,7.437300e-01,-1.465700e-01,6.408200e-02,1.375100e+01
5.459500e-01,7.375500e-01,-1.466000e-01,6.408200e-02,1.374800e+01
5.647800e-01,7.365000e-01,-1.466100e-01,6.408200e-02,1.312300e+01
6.005200e-01,7.379000e-01,-1.466000e-01,6.408200e-02,1.168400e+01
5.937000e-01,8.338300e-01,-1.461600e-01,6.408200e-02,1.167900e+01
6.122500e-01,8.889900e-01,-1.459000e-01,6.408200e-02,1.152100e+01
6.215300e-01,9.445800e-01,-1.456500e-01,6.408200e-02,1.038500e+01
0,0,-1.500000e-01,9.612300e-02,9.685600e+00
-1.500600e-02,1.842800e-02,-1.499200e-01,9.612300e-02,9.450700e+00
5.958800e-01,6.843500e-01,-1.468500e-01,9.612300e-02,1.085700e+01
5.451300e-01,7.679800e-01,-1.464600e-01,9.612300e-02,1.199900e+01
5.042100e-01,7.168000e-01,-1.467000e-01,9.612300e-02,1.276000e+01
5.063900e-01,6.771400e-01,-1.468800e-01,9.612300e-02,1.309700e+01
5.320300e-01,6.840500e-01,-1.468500e-01,9.612300e-02,1.255700e+01
5.413100e-01,5.576100e-01,-1.474300e-01,9.612300e-02,1.106100e+01
5.413100e-01,7.729200e-01,-1.464400e-01,9.612300e-02,1.100100e+01
5.672300e-01,8.986800e-01,-1.458600e-01,9.612300e-02,1.033900e+01
0,0,-1.500000e-01,1.281600e-01,9.759100e+00
5.604100e-01,7.060300e-01,-1.467500e-01,1.281600e-01,1.066700e+01
5.230300e-01,7.645900e-01,-1.464800e-01,1.281600e-01,1.176700e+01
4.965700e-01,6.257300e-01,-1.471200e-01,1.281600e-01,1.249600e+01
4.905600e-01,5.538000e-01,-1.474500e-01,1.281600e-01,1.233300e+01
3.806100e-01,5.285500e-01,-1.475600e-01,1.281600e-01,1.067600e+01
5.325800e-01,8.265200e-01,-1.461900e-01,1.281600e-01,1.067900e+01
0,0,-1.500000e-01,1.602100e-01,9.983600e+00
5.675000e-01,6.960600e-01,-1.467900e-01,1.602100e-01,1.008700e+01
5.525000e-01,7.478800e-01,-1.465500e-01,1.602100e-01,1.068800e+01
5.424000e-01,2.161500e-02,-1.499000e-01,1.602100e-01,1.112400e+01
6.646300e-01,3.948400e-01,-1.481800e-01,1.602100e-01,1.085500e+01
6.957400e-01,7.819900e-01,-1.464000e-01,1.602100e-01,1.074000e+01
5.159400e-01,8.084000e-01,-1.462800e-01,1.602100e-01,1.055800e+01
5.500400e-01,8.560100e-01,-1.460600e-01,1.602100e-01,1.005000e+01
0,0,-1.500000e-01,1.922500e-01,9.561400e+00
4.201700e-01,5.315900e-01,-1.475500e-01,1.922500e-01,9.158100e+00
4.455400e-01,5.541200e-01,-1.474500e-01,1.922500e-01,9.293700e+00
4.452700e-01,5.599500e-01,-1.474200e-01,1.922500e-01,9.305700e+00
4.051600e-01,4.443800e-01,-1.479500e-01,1.922500e-01,1.037700e+01
4.278100e-01,4.735100e-01,-1.478200e-01,1.922500e-01,1.063100e+01
7.200200e-01,3.671100e-01,-1.483100e-01,1.922500e-01,1.005700e+01
9.282000e-01,1.611000e+00,-1.425800e-01,1.922500e-01,1.010800e+01
0,0,-1.500000e-01,2.242900e-01,9.471600e+00
4.190800e-01,5.413400e-01,-1.475100e-01,2.242900e-01,9.532500e+00
3.956200e-01,4.388500e-01,-1.479800e-01,2.242900e-01,9.831500e+00
3.759700e-01,4.362800e-01,-1.479900e-01,2.242900e-01,9.777500e+00
4.567300e-01,5.860600e-01,-1.473000e-01,2.242900e-01,1.028500e+01
5.347600e-01,6.951000e-01,-1.468000e-01,2.242900e-01,9.846800e+00
5.617700e-01,7.436800e-01,-1.465700e-01,2.242900e-01,1.097700e+01
5.729600e-01,7.374400e-01,-1.466000e-01,2.242900e-01,1.108600e+01
5.497700e-01,7.560200e-01,-1.465200e-01,2.242900e-01,1.026400e+01
0,0,-1.500000e-01,2.563300e-01,9.543800e+00
3.819700e-01,5.512400e-01,-1.474600e-01,2.563300e-01,1.026800e+01
4.043500e-01,5.919800e-01,-1.472700e-01,2.563300e-01,1.068300e+01
4.493600e-01,6.580100e-01,-1.469700e-01,2.563300e-01,1.059800e+01
5.194800e-01,7.167600e-01,-1.467000e-01,2.563300e-01,1.040400e+01
5.617700e-01,7.680700e-01,-1.464600e-01,2.563300e-01,1.112800e+01
5.729600e-01,7.917100e-01,-1.463500e-01,2.563300e-01,1.120800e+01
5.751400e-01,8.264700e-01,-1.461900e-01,2.563300e-01,1.034500e+01
-4.606600e+00,7.495600e+00,-1.154600e-01,-1.057400e+00,1.006700e+01
-4.693900e+00,7.471000e+00,-1.155800e-01,-1.057400e+00,1.013500e+01
3.293200e-01,2.451800e+00,-1.387000e-01,-9.932700e-01,1.061100e+01
3.339500e-01,2.478900e+00,-1.385800e-01,-9.932700e-01,1.083100e+01
3.186800e-01,2.510200e+00,-1.384300e-01,-9.932700e-01,1.062200e+01
3.246800e-01,2.422600e+00,-1.388400e-01,-9.612300e-01,9.995500e+00
3.486900e-01,2.451900e+00,-1.387000e-01,-9.612300e-01,1.117600e+01
3.732400e-01,2.480200e+00,-1.385700e-01,-9.612300e-01,1.173700e+01
3.784300e-01,2.510200e+00,-1.384300e-01,-9.612300e-01,1.174200e+01
3.836100e-01,2.531600e+00,-1.383400e-01,-9.612300e-01,1.100200e+01
3.819700e-01,2.399200e+00,-1.389500e-01,-9.291900e-01,1.000900e+01
3.486900e-01,2.446400e+00,-1.387300e-01,-9.291900e-01,1.154300e+01
3.339500e-01,2.484300e+00,-1.385500e-01,-9.291900e-01,1.213000e+01
3.585100e-01,2.516000e+00,-1.384100e-01,-9.291900e-01,1.188200e+01
4.038000e-01,2.542500e+00,-1.382800e-01,-9.291900e-01,1.086200e+01
-1.614100e+00,2.543200e+00,-1.382800e-01,-9.291900e-01,1.019900e+01
3.680600e-01,2.447500e+00,-1.387200e-01,-8.971500e-01,1.166100e+01
3.536000e-01,2.482300e+00,-1.385600e-01,-8.971500e-01,1.238300e+01
3.585100e-01,2.515500e+00,-1.384100e-01,-8.971500e-01,1.214800e+01
4.038000e-01,2.545000e+00,-1.382700e-01,-8.971500e-01,1.102600e+01
1.336900e-01,2.428900e+00,-1.388100e-01,-8.651100e-01,1.099800e+01
2.518300e-01,2.465200e+00,-1.386400e-01,-8.651100e-01,1.106500e+01
4.125300e-01,2.478700e+00,-1.385800e-01,-8.651100e-01,1.143800e+01
3.983400e-01,2.507000e+00,-1.384500e-01,-8.651100e-01,1.151700e+01
3.836100e-01,2.540400e+00,-1.382900e-01,-8.651100e-01,1.078600e+01
7.530300e-02,2.382100e+00,-1.390200e-01,-8.330700e-01,1.018600e+01
9.549300e-02,2.421100e+00,-1.388400e-01,-8.330700e-01,1.133100e+01
5.811500e-02,2.458100e+00,-1.386700e-01,-8.330700e-01,1.117300e+01
4.182600e-01,2.504800e+00,-1.384600e-01,-8.330700e-01,1.104000e+01
3.836100e-01,2.553400e+00,-1.382300e-01,-8.330700e-01,1.092900e+01
1.527900e-01,2.401500e+00,-1.389300e-01,-8.010300e-01,1.028800e+01
1.162300e-01,2.438600e+00,-1.387600e-01,-8.010300e-01,1.024400e+01
2.946700e-01,2.485900e+00,-1.385500e-01,-8.010300e-01,1.000700e+01
3.983400e-01,2.514700e+00,-1.384100e-01,-8.010300e-01,1.112300e+01
4.239900e-01,2.548300e+00,-1.382600e-01,-8.010300e-01,1.103400e+01
2.750200e-01,2.490800e+00,-1.385200e-01,-7.689800e-01,1.009100e+01
3.385900e-01,2.513100e+00,-1.384200e-01,-7.689800e-01,1.062200e+01
3.836100e-01,2.530800e+00,-1.383400e-01,-7.689800e-01,1.065400e+01
4.125300e-01,2.475600e+00,-1.385900e-01,-7.369400e-01,1.010600e+01
4.182600e-01,2.512800e+00,-1.384200e-01,-7.369400e-01,1.125600e+01
4.441800e-01,2.544200e+00,-1.382800e-01,-7.369400e-01,1.110400e+01
3.536000e-01,2.487600e+00,-1.385400e-01,-7.049000e-01,1.054500e+01
3.983400e-01,2.516800e+00,-1.384000e-01,-7.049000e-01,1.116300e+01
4.441800e-01,2.543200e+00,-1.382800e-01,-7.049000e-01,1.078500e+01
-3.383200e-02,1.047600e+00,-1.451700e-01,-4.806200e-01,9.792700e+00
-1.746200e-02,1.078100e+00,-1.450300e-01,-4.806200e-01,9.450300e+00
-8.488000e-01,1.511600e+00,-1.430300e-01,-3.204100e-01,1.056300e+01
-8.654400e-01,1.552600e+00,-1.428500e-01,-3.204100e-01,1.164600e+01
-8.965500e-01,1.586300e+00,-1.426900e-01,-3.204100e-01,1.167400e+01
-9.576600e-01,1.618100e+00,-1.425400e-01,-3.204100e-01,1.045100e+01
-8.709000e-01,1.726100e+00,-1.420500e-01,-3.204100e-01,1.058500e+01
-8.864500e-01,1.741500e+00,-1.419800e-01,-3.204100e-01,1.071900e+01
-9.653000e-01,1.757500e+00,-1.419000e-01,-3.204100e-01,1.036000e+01
-8.348900e-01,1.528400e+00,-1.429600e-01,-2.883700e-01,1.137200e+01
-8.370700e-01,1.581600e+00,-1.427100e-01,-2.883700e-01,1.257100e+01
-8.676300e-01,1.612800e+00,-1.425700e-01,-2.883700e-01,1.273300e+01
-8.987300e-01,1.648300e+00,-1.424000e-01,-2.883700e-01,1.182600e+01
-8.403400e-01,1.733900e+00,-1.420100e-01,-2.883700e-01,1.046700e+01
-8.553500e-01,1.763900e+00,-1.418700e-01,-2.883700e-01,1.080800e+01
-9.020000e-01,1.788700e+00,-1.417600e-01,-2.883700e-01,1.053600e+01
0,0,-1.500000e-01,-2.563300e-01,9.403700e+00
-8.209700e-01,1.451000e+00,-1.433100e-01,-2.563300e-01,1.051300e+01
-8.228800e-01,1.583800e+00,-1.427000e-01,-2.563300e-01,1.168200e+01
-8.387000e-01,1.633200e+00,-1.424700e-01,-2.563300e-01,1.184100e+01
-8.545300e-01,1.678300e+00,-1.422700e-01,-2.563300e-01,1.087100e+01
0,0,-1.500000e-01,-1.922500e-01,9.933700e+00
-8.403400e-01,5.538300e-01,-1.474500e-01,-1.922500e-01,1.074700e+01
-8.741700e-01,6.096900e-01,-1.471900e-01,-1.922500e-01,1.150500e+01
-9.085500e-01,6.808600e-01,-1.468600e-01,-1.922500e-01,1.131200e+01
-9.538400e-01,7.691100e-01,-1.464600e-01,-1.922500e-01,1.012700e+01
0,0,-1.500000e-01,-1.602100e-01,9.151200e+00
5.252100e-01,6.690000e-01,-1.469200e-01,-1.602100e-01,9.415100e+00
5.604100e-01,6.441500e-01,-1.470300e-01,-1.602100e-01,9.937000e+00
-8.307900e-01,5.665600e-01,-1.473900e-01,-1.602100e-01,1.046600e+01
-8.643500e-01,6.499800e-01,-1.470100e-01,-1.602100e-01,1.136400e+01
-8.984600e-01,6.920400e-01,-1.468100e-01,-1.602100e-01,1.121500e+01
-9.642100e-01,6.942500e-01,-1.468000e-01,-1.602100e-01,9.992500e+00
0,0,-1.500000e-01,-1.281600e-01,9.527000e+00
-8.594400e-01,8.661000e-01,-1.460100e-01,-1.281600e-01,1.055300e+01
-8.741700e-01,8.422500e-01,-1.461200e-01,-1.281600e-01,1.109000e+01
-9.085500e-01,7.929600e-01,-1.463500e-01,-1.281600e-01,1.077600e+01
0,0,-1.500000e-01,-9.612300e-02,9.646700e+00
-8.627100e-01,6.119500e-01,-1.471800e-01,-9.612300e-02,1.053200e+01
-8.880900e-01,7.641300e-01,-1.464800e-01,-9.612300e-02,1.155800e+01
-9.232800e-01,8.436000e-01,-1.461100e-01,-9.612300e-02,1.167500e+01
-9.590300e-01,8.602400e-01,-1.460400e-01,-9.612300e-02,1.090000e+01
-1.113200e+00,7.854900e-01,-1.463800e-01,-9.612300e-02,9.520200e+00
0,0,-1.500000e-01,-6.408200e-02,1.037900e+01
5.746000e-01,7.055400e-01,-1.467500e-01,-6.408200e-02,9.744000e+00
-8.976400e-01,2.334300e-01,-1.489200e-01,-6.408200e-02,1.183700e+01
-9.724000e-01,5.522100e-01,-1.474600e-01,-6.408200e-02,1.171400e+01
-1.049900e+00,7.180200e-01,-1.466900e-01,-6.408200e-02,1.078600e+01
0,0,-1.500000e-01,-3.204100e-02,1.575200e+01
-7.202900e-02,6.630500e-02,-1.496900e-01,-3.204100e-02,1.430900e+01
-1.227800e-02,1.304500e-01,-1.494000e-01,-3.204100e-02,1.346900e+01
-3.274100e-03,1.313200e-01,-1.493900e-01,-3.204100e-02,1.254400e+01
1.336900e-02,1.730800e-01,-1.492000e-01,-3.204100e-02,1.191100e+01
2.660200e-01,1.061800e-01,-1.495100e-01,-3.204100e-02,1.236100e+01
5.675000e-01,7.080400e-01,-1.467400e-01,-3.204100e-02,1.359100e+01
5.746000e-01,7.456800e-01,-1.465600e-01,-3.204100e-02,1.416700e+01
5.882400e-01,7.747000e-01,-1.464300e-01,-3.204100e-02,1.393400e+01
5.855100e-01,8.195900e-01,-1.462200e-01,-3.204100e-02,1.285600e+01
5.402200e-01,8.784400e-01,-1.459500e-01,-3.204100e-02,1.162700e+01
-8.905400e-01,6.680600e-01,-1.469200e-01,-3.204100e-02,1.060600e+01
-9.262900e-01,3.479100e-01,-1.484000e-01,-3.204100e-02,1.230100e+01
-1.016000e+00,7.515300e-01,-1.465400e-01,-3.204100e-02,1.149700e+01
-1.032100e+00,7.140600e-01,-1.467100e-01,-3.204100e-02,1.098000e+01
