0,0,-1.500000e-01,0,1.678800e+01
-4.092600e-02,2.162900e-02,-1.500700e-01,0,1.618000e+01
-7.312100e-02,6.565500e-02,-1.502200e-01,0,1.532400e+01
-1.091400e-02,1.349600e-01,-1.504500e-01,0,1.451300e+01
-3.274100e-03,1.379200e-01,-1.504600e-01,0,1.364600e+01
9.549300e-03,1.748700e-01,-1.505900e-01,0,1.301500e+01
5.525000e-01,6.572100e-01,-1.522000e-01,0,1.417500e+01
5.533200e-01,7.194300e-01,-1.524100e-01,0,1.583900e+01
5.598600e-01,7.434600e-01,-1.524900e-01,0,1.653400e+01
5.729600e-01,7.493000e-01,-1.525100e-01,0,1.636000e+01
5.855100e-01,7.467200e-01,-1.525000e-01,0,1.527600e+01
5.729600e-01,8.075900e-01,-1.527100e-01,0,1.333400e+01
-7.421200e-01,7.459800e-01,-1.525000e-01,0,1.193000e+01
-1.012200e+00,5.070100e-01,-1.517000e-01,0,1.279300e+01
-9.724000e-01,3.822800e-01,-1.512800e-01,0,1.322500e+01
-1.005700e+00,8.095800e-01,-1.527100e-01,0,1.229600e+01
-1.021500e+00,7.781300e-01,-1.526100e-01,0,1.180100e+01
-1.036800e+00,7.749900e-01,-1.526000e-01,0,1.044000e+01
0,0,-1.500000e-01,3.204100e-02,1.578200e+01
-4.092600e-02,2.687200e-02,-1.500900e-01,3.204100e-02,1.516300e+01
-7.312100e-02,6.754900e-02,-1.502300e-01,3.204100e-02,1.432000e+01
-1.091400e-02,1.368700e-01,-1.504600e-01,3.204100e-02,1.351400e+01
-3.274100e-03,1.376900e-01,-1.504600e-01,3.204100e-02,1.265800e+01
9.549300e-03,1.730300e-01,-1.505800e-01,3.204100e-02,1.203400e+01
5.525000e-01,6.456200e-01,-1.521600e-01,3.204100e-02,1.310100e+01
5.533200e-01,7.198900e-01,-1.524100e-01,3.204100e-02,1.481400e+01
5.598600e-01,7.461700e-01,-1.525000e-01,3.204100e-02,1.551200e+01
5.729600e-01,7.515900e-01,-1.525200e-01,3.204100e-02,1.534300e+01
5.776000e-01,7.609200e-01,-1.525500e-01,3.204100e-02,1.430200e+01
5.811500e-01,8.237700e-01,-1.527600e-01,3.204100e-02,1.273000e+01
-8.905400e-01,7.179300e-01,-1.524100e-01,3.204100e-02,1.136100e+01
-9.071900e-01,6.377200e-01,-1.521400e-01,3.204100e-02,1.317400e+01
-9.232800e-01,5.968800e-01,-1.520000e-01,3.204100e-02,1.351200e+01
-9.489300e-01,4.263300e-01,-1.514300e-01,3.204100e-02,1.244200e+01
-1.057500e+00,7.730200e-01,-1.525900e-01,3.204100e-02,1.044300e+01
-1.010900e+00,8.464200e-01,-1.528400e-01,3.204100e-02,1.061600e+01
0,0,-1.500000e-01,6.408200e-02,1.011900e+01
4.583700e-01,5.121300e-01,-1.517200e-01,6.408200e-02,1.034500e+01
4.911100e-01,5.969800e-01,-1.520000e-01,6.408200e-02,1.075800e+01
5.391300e-01,7.109600e-01,-1.523800e-01,6.408200e-02,1.166900e+01
5.893300e-01,7.173800e-01,-1.524000e-01,6.408200e-02,1.253200e+01
6.264400e-01,7.329400e-01,-1.524600e-01,6.408200e-02,1.276800e+01
6.567200e-01,7.524200e-01,-1.525200e-01,6.408200e-02,1.222300e+01
6.384400e-01,7.677000e-01,-1.525700e-01,6.408200e-02,1.100200e+01
-8.256100e-01,6.155200e-01,-1.520600e-01,6.408200e-02,1.099800e+01
-8.594400e-01,6.673900e-01,-1.522400e-01,6.408200e-02,1.230400e+01
-8.840000e-01,7.226500e-01,-1.524200e-01,6.408200e-02,1.259300e+01
-9.085500e-01,7.844100e-01,-1.526300e-01,6.408200e-02,1.195300e+01
-9.227400e-01,8.666900e-01,-1.529000e-01,6.408200e-02,1.034300e+01
2.946700e-01,5.529600e-01,-1.518500e-01,9.612300e-02,9.350300e+00
4.452700e-01,5.271900e-01,-1.517700e-01,9.612300e-02,9.869100e+00
4.501800e-01,4.904500e-01,-1.516400e-01,9.612300e-02,1.052700e+01
4.469100e-01,2.870900e-01,-1.509600e-01,9.612300e-02,1.124500e+01
5.653200e-01,3.404900e-01,-1.511400e-01,9.612300e-02,1.195900e+01
6.171600e-01,7.747500e-01,-1.526000e-01,9.612300e-02,1.183600e+01
6.466300e-01,8.132900e-01,-1.527300e-01,9.612300e-02,1.140500e+01
-8.403400e-01,7.359500e-01,-1.524700e-01,9.612300e-02,1.055500e+01
-8.938200e-01,7.261500e-01,-1.524300e-01,9.612300e-02,1.080000e+01
-9.590300e-01,7.453700e-01,-1.525000e-01,9.612300e-02,9.931700e+00
0,0,-1.500000e-01,1.281600e-01,9.872000e+00
4.256300e-01,2.264300e-01,-1.507600e-01,1.281600e-01,1.070600e+01
4.788300e-01,2.479100e-01,-1.508300e-01,1.281600e-01,1.192200e+01
5.194800e-01,5.893000e-01,-1.519700e-01,1.281600e-01,1.262200e+01
5.617700e-01,7.383500e-01,-1.524700e-01,1.281600e-01,1.287100e+01
5.893300e-01,8.094700e-01,-1.527100e-01,1.281600e-01,1.226800e+01
6.089800e-01,8.840900e-01,-1.529600e-01,1.281600e-01,1.055700e+01
5.852400e-01,8.351500e-01,-1.528000e-01,1.281600e-01,9.476800e+00
4.321800e-01,5.425300e-01,-1.518200e-01,1.602100e-01,9.572000e+00
4.329900e-01,5.525200e-01,-1.518500e-01,1.602100e-01,9.871400e+00
5.156600e-01,1.999100e-01,-1.506700e-01,1.602100e-01,1.088700e+01
5.424000e-01,6.916600e-01,-1.523200e-01,1.602100e-01,1.198000e+01
5.617700e-01,7.596600e-01,-1.525500e-01,1.602100e-01,1.222700e+01
5.893300e-01,8.186200e-01,-1.527400e-01,1.602100e-01,1.155200e+01
5.920600e-01,9.063400e-01,-1.530400e-01,1.602100e-01,9.693800e+00
-1.290500e+00,3.618200e+00,-1.621200e-01,-1.153500e+00,1.046500e+01
-1.423400e+00,3.601100e+00,-1.620700e-01,-1.153500e+00,1.055400e+01
-1.040900e+00,3.633900e+00,-1.621800e-01,-1.121400e+00,1.022700e+01
-1.290500e+00,3.616900e+00,-1.621200e-01,-1.121400e+00,1.108700e+01
-1.362800e+00,3.628700e+00,-1.621600e-01,-1.121400e+00,1.122000e+01
-1.375100e+00,3.660700e+00,-1.622700e-01,-1.121400e+00,1.045300e+01
-1.332500e+00,3.639900e+00,-1.622000e-01,-1.089400e+00,1.060300e+01
-1.350500e+00,3.596300e+00,-1.620500e-01,-1.057400e+00,1.062800e+01
-1.362800e+00,3.627100e+00,-1.621500e-01,-1.057400e+00,1.072000e+01
-1.308500e+00,3.572900e+00,-1.619700e-01,-1.025300e+00,1.071900e+01
-1.380600e+00,3.584900e+00,-1.620100e-01,-1.025300e+00,1.145400e+01
-1.423400e+00,3.605200e+00,-1.620800e-01,-1.025300e+00,1.118700e+01
-1.338300e+00,3.562100e+00,-1.619400e-01,-9.932700e-01,1.149900e+01
-1.410600e+00,3.573200e+00,-1.619700e-01,-9.932700e-01,1.213400e+01
-1.423400e+00,3.605400e+00,-1.620800e-01,-9.932700e-01,1.178000e+01
-1.405700e+00,3.637500e+00,-1.621900e-01,-9.932700e-01,1.027700e+01
-1.338300e+00,3.562300e+00,-1.619400e-01,-9.612300e-01,1.096500e+01
-1.410600e+00,3.573100e+00,-1.619700e-01,-9.612300e-01,1.167300e+01
-1.453700e+00,3.591900e+00,-1.620400e-01,-9.612300e-01,1.136400e+01
-2.586500e+00,7.861000e+00,-1.763400e-01,-9.612300e-01,1.103200e+01
-2.597400e+00,7.881400e+00,-1.764100e-01,-9.612300e-01,1.121100e+01
-2.738800e+00,7.802900e+00,-1.761500e-01,-9.612300e-01,1.043600e+01
-9.663900e-01,1.211400e+00,-1.540600e-01,-9.291900e-01,1.015200e+01
-1.077200e+00,1.157300e+00,-1.538800e-01,-9.291900e-01,1.086600e+01
-1.139400e+00,1.150700e+00,-1.538600e-01,-9.291900e-01,1.093900e+01
-1.189800e+00,1.154700e+00,-1.538700e-01,-9.291900e-01,1.014600e+01
-1.020400e+00,2.780800e+00,-1.593200e-01,-9.291900e-01,1.034600e+01
-1.079300e+00,2.792800e+00,-1.593600e-01,-9.291900e-01,1.054900e+01
-1.440600e+00,3.561200e+00,-1.619300e-01,-9.291900e-01,1.064800e+01
-5.631400e-01,5.978100e+00,-1.700300e-01,-9.291900e-01,9.873800e+00
-4.250800e+00,5.016500e+00,-1.668100e-01,-9.291900e-01,9.834100e+00
-4.221100e+00,5.082400e+00,-1.670300e-01,-9.291900e-01,1.002400e+01
-2.511200e+00,7.798400e+00,-1.761300e-01,-9.291900e-01,1.016200e+01
-2.586500e+00,7.855200e+00,-1.763200e-01,-9.291900e-01,1.121400e+01
-2.662400e+00,7.863800e+00,-1.763500e-01,-9.291900e-01,1.144100e+01
-2.738800e+00,7.838400e+00,-1.762700e-01,-9.291900e-01,1.072400e+01
-1.016600e+00,1.147300e+00,-1.538400e-01,-8.971500e-01,1.061000e+01
-1.077200e+00,1.173200e+00,-1.539300e-01,-8.971500e-01,1.125600e+01
-1.113200e+00,1.208800e+00,-1.540500e-01,-8.971500e-01,1.110500e+01
-1.149700e+00,1.245400e+00,-1.541700e-01,-8.971500e-01,1.003000e+01
-9.508400e-01,2.785500e+00,-1.593300e-01,-8.971500e-01,1.011800e+01
-1.055900e+00,2.801000e+00,-1.593900e-01,-8.971500e-01,1.040500e+01
-2.457200e+00,7.882300e+00,-1.764100e-01,-8.971500e-01,1.034300e+01
-2.597400e+00,7.892800e+00,-1.764500e-01,-8.971500e-01,1.055100e+01
-1.041700e+00,1.169600e+00,-1.539200e-01,-8.651100e-01,1.082700e+01
-1.090000e+00,1.188700e+00,-1.539800e-01,-8.651100e-01,1.122400e+01
-1.113200e+00,1.236100e+00,-1.541400e-01,-8.651100e-01,1.081600e+01
-1.350500e+00,3.579100e+00,-1.619900e-01,-8.651100e-01,1.039500e+01
-7.219300e-01,5.082000e+00,-1.670300e-01,-8.651100e-01,1.045700e+01
-8.479800e-01,5.092200e+00,-1.670600e-01,-8.651100e-01,1.023900e+01
-1.964400e-01,1.188600e+00,-1.539800e-01,-8.330700e-01,9.851000e+00
-2.321900e-01,1.227300e+00,-1.541100e-01,-8.330700e-01,1.035900e+01
-2.799300e-01,1.222200e+00,-1.541000e-01,-8.330700e-01,9.833000e+00
-9.331100e-01,1.213300e+00,-1.540700e-01,-8.330700e-01,1.009900e+01
-1.041700e+00,1.172500e+00,-1.539300e-01,-8.330700e-01,1.074300e+01
-1.102800e+00,1.172100e+00,-1.539300e-01,-8.330700e-01,1.103300e+01
-1.139400e+00,1.206100e+00,-1.540400e-01,-8.330700e-01,1.064100e+01
-1.759300e+00,1.135000e+00,-1.538000e-01,-8.330700e-01,9.851400e+00
-1.718900e+00,1.294700e+00,-1.543400e-01,-8.330700e-01,1.002200e+01
-7.170200e-01,5.047500e+00,-1.669100e-01,-8.330700e-01,1.007400e+01
-7.219300e-01,5.082500e+00,-1.670300e-01,-8.330700e-01,1.120900e+01
-7.672200e-01,5.110600e+00,-1.671300e-01,-8.330700e-01,1.121000e+01
-8.537100e-01,5.118200e+00,-1.671500e-01,-8.330700e-01,1.008800e+01
-2.207800e+00,8.013100e+00,-1.768500e-01,-8.330700e-01,9.849100e+00
-2.062700e-01,1.193300e+00,-1.540000e-01,-8.010300e-01,9.885700e+00
-2.220900e-01,1.216500e+00,-1.540800e-01,-8.010300e-01,1.021600e+01
-1.102800e+00,1.175500e+00,-1.539400e-01,-8.010300e-01,1.058900e+01
-1.139400e+00,1.195200e+00,-1.540100e-01,-8.010300e-01,1.070100e+01
-2.121600e+00,3.110000e+00,-1.604200e-01,-8.010300e-01,1.042700e+01
-7.568500e-01,5.040600e+00,-1.668900e-01,-8.010300e-01,1.008900e+01
-7.620400e-01,5.076800e+00,-1.670100e-01,-8.010300e-01,1.116300e+01
-7.672200e-01,5.109300e+00,-1.671200e-01,-8.010300e-01,1.117500e+01
-8.537100e-01,5.115800e+00,-1.671400e-01,-8.010300e-01,1.027800e+01
-1.080400e+00,1.952800e+00,-1.565400e-01,-7.689800e-01,9.994300e+00
-2.268900e+00,3.007700e+00,-1.600800e-01,-7.689800e-01,1.029600e+01
-8.021400e-01,5.056100e+00,-1.669400e-01,-7.689800e-01,1.025800e+01
-7.672200e-01,5.107000e+00,-1.671100e-01,-7.689800e-01,1.037100e+01
-1.650100e+00,1.431300e+00,-1.548000e-01,-7.369400e-01,1.016500e+01
-2.299500e+00,1.855300e+00,-1.562200e-01,-7.369400e-01,1.023700e+01
-2.326200e+00,1.913200e+00,-1.564100e-01,-7.369400e-01,1.010000e+01
2.821100e-01,3.268100e+00,-1.609500e-01,-7.369400e-01,1.062400e+01
-2.232100e+00,2.730300e+00,-1.591500e-01,-7.369400e-01,1.031100e+01
1.418800e-02,7.187500e-01,-1.524100e-01,-7.049000e-01,9.682100e+00
-7.366600e-03,7.687900e-01,-1.525800e-01,-7.049000e-01,9.881600e+00
-2.319100e+00,1.823000e+00,-1.561100e-01,-7.049000e-01,1.018200e+01
-2.299500e+00,1.892800e+00,-1.563400e-01,-7.049000e-01,1.090100e+01
-2.255000e+00,1.991200e+00,-1.566700e-01,-7.049000e-01,1.078100e+01
-2.184900e+00,2.094800e+00,-1.570200e-01,-7.049000e-01,1.021500e+01
-2.724000e+00,2.365000e+00,-1.579300e-01,-7.049000e-01,1.041900e+01
-2.692900e+00,2.477200e+00,-1.583000e-01,-7.049000e-01,1.022400e+01
0,0,-1.500000e-01,-6.728600e-01,9.316700e+00
-2.046300e-02,6.926800e-01,-1.523200e-01,-6.728600e-01,9.476300e+00
-7.093800e-03,7.104200e-01,-1.523800e-01,-6.728600e-01,1.092200e+01
-7.366600e-03,7.451200e-01,-1.525000e-01,-6.728600e-01,1.114800e+01
-2.291800e-02,7.661800e-01,-1.525700e-01,-6.728600e-01,1.020500e+01
-4.147100e-01,1.216800e+00,-1.540800e-01,-6.728600e-01,1.062000e+01
-4.575500e-01,1.236000e+00,-1.541400e-01,-6.728600e-01,1.069400e+01
-2.319100e+00,1.829500e+00,-1.561300e-01,-6.728600e-01,1.015000e+01
-2.252600e+00,1.959800e+00,-1.565700e-01,-6.728600e-01,1.062900e+01
-2.207500e+00,2.058200e+00,-1.569000e-01,-6.728600e-01,1.057800e+01
-2.160900e+00,2.144000e+00,-1.571800e-01,-6.728600e-01,1.014600e+01
-2.728400e-02,7.259400e-01,-1.524300e-01,-6.408200e-01,9.625800e+00
-7.093800e-03,7.678700e-01,-1.525700e-01,-6.408200e-01,1.066200e+01
7.366600e-03,8.143700e-01,-1.527300e-01,-6.408200e-01,1.045400e+01
3.546900e-02,6.934400e-01,-1.523200e-01,-6.087800e-01,1.035100e+01
5.893300e-02,7.350300e-01,-1.524600e-01,-6.087800e-01,1.072000e+01
8.403400e-02,7.962000e-01,-1.526700e-01,-6.087800e-01,9.991900e+00
-2.182200e+00,2.063600e+00,-1.569200e-01,-6.087800e-01,1.022700e+01
-2.837500e-02,6.758300e-01,-1.522600e-01,-5.767400e-01,1.019400e+01
-2.946700e-02,7.636500e-01,-1.525600e-01,-5.767400e-01,1.119500e+01
-2.291800e-02,8.032900e-01,-1.526900e-01,-5.767400e-01,1.107800e+01
-3.956200e-02,8.028500e-01,-1.526900e-01,-5.767400e-01,9.780900e+00
-2.837500e-02,5.929300e-01,-1.519900e-01,-5.447000e-01,1.025400e+01
-3.683300e-02,7.153600e-01,-1.524000e-01,-5.447000e-01,1.113100e+01
-4.583700e-02,7.566300e-01,-1.525400e-01,-5.447000e-01,1.103000e+01
-8.703500e-02,7.095200e-01,-1.523800e-01,-5.447000e-01,9.931100e+00
-4.338100e-01,9.390900e-01,-1.531500e-01,-5.447000e-01,1.001400e+01
-3.806100e-01,9.740800e-01,-1.532600e-01,-5.447000e-01,9.956800e+00
-3.666900e-01,9.882600e-01,-1.533100e-01,-5.447000e-01,1.054000e+01
-4.051600e-01,9.997900e-01,-1.533500e-01,-5.447000e-01,1.055100e+01
-3.467800e-01,9.605000e-01,-1.532200e-01,-5.126600e-01,9.802100e+00
-3.666900e-01,9.692800e-01,-1.532500e-01,-5.126600e-01,1.077000e+01
-3.961600e-01,9.858800e-01,-1.533000e-01,-5.126600e-01,1.074900e+01
-4.452700e-01,1.015400e+00,-1.534000e-01,-5.126600e-01,1.014000e+01
-2.205600e+00,2.032300e+00,-1.568100e-01,-5.126600e-01,1.016500e+01
-2.255000e+00,2.036200e+00,-1.568200e-01,-5.126600e-01,1.016700e+01
-1.797500e+00,6.123200e+00,-1.705200e-01,-5.126600e-01,1.046900e+01
-1.857500e+00,6.150900e+00,-1.706100e-01,-5.126600e-01,1.187200e+01
-1.867600e+00,6.185000e+00,-1.707300e-01,-5.126600e-01,1.226400e+01
-1.979200e+00,6.186800e+00,-1.707300e-01,-5.126600e-01,1.171000e+01
-2.193900e+00,6.147300e+00,-1.706000e-01,-5.126600e-01,1.018700e+01
-3.841600e-01,9.401000e-01,-1.531500e-01,-4.806200e-01,1.011200e+01
-3.961600e-01,9.674100e-01,-1.532400e-01,-4.806200e-01,9.926100e+00
-1.797500e+00,6.126900e+00,-1.705300e-01,-4.806200e-01,1.115700e+01
-1.857500e+00,6.150400e+00,-1.706100e-01,-4.806200e-01,1.253800e+01
-1.867600e+00,6.184600e+00,-1.707200e-01,-4.806200e-01,1.288900e+01
-1.928400e+00,6.202800e+00,-1.707900e-01,-4.806200e-01,1.230800e+01
-1.938800e+00,6.235600e+00,-1.709000e-01,-4.806200e-01,1.073800e+01
-1.907700e+00,6.135900e+00,-1.705600e-01,-4.485700e-01,1.119900e+01
-1.918100e+00,6.169400e+00,-1.706700e-01,-4.485700e-01,1.155700e+01
-1.928400e+00,6.202700e+00,-1.707900e-01,-4.485700e-01,1.094000e+01
4.267200e-01,5.160900e-01,-1.517300e-01,-4.165300e-01,9.442100e+00
4.354500e-01,9.275500e+00,-1.810800e-01,-4.165300e-01,1.069100e+01
4.370900e-01,9.291800e+00,-1.811400e-01,-4.165300e-01,1.052000e+01
4.518200e-01,5.451600e-01,-1.518300e-01,-3.844900e-01,9.567200e+00
1.446000e-01,9.236600e+00,-1.809500e-01,-3.844900e-01,1.072600e+01
2.177200e-01,9.270200e+00,-1.810600e-01,-3.844900e-01,1.140300e+01
2.185400e-01,9.297800e+00,-1.811600e-01,-3.844900e-01,1.119500e+01
2.924800e-01,9.306800e+00,-1.811900e-01,-3.844900e-01,1.011400e+01
1.451500e-01,9.196100e+00,-1.808200e-01,-3.524500e-01,1.045900e+01
2.913900e-01,9.281300e+00,-1.811000e-01,-3.524500e-01,1.024600e+01
0,0,-1.500000e-01,-6.408200e-02,1.056500e+01
-1.718900e-02,1.233500e-02,-1.500400e-01,-6.408200e-02,9.902400e+00
5.451300e-01,7.071900e-01,-1.523700e-01,-6.408200e-02,1.060900e+01
5.500400e-01,7.234600e-01,-1.524200e-01,-6.408200e-02,1.102500e+01
5.538600e-01,7.396800e-01,-1.524800e-01,-6.408200e-02,1.030000e+01
-8.840000e-01,8.723500e-01,-1.529200e-01,-6.408200e-02,9.822200e+00
-9.590300e-01,8.501500e-01,-1.528500e-01,-6.408200e-02,9.773100e+00
0,0,-1.500000e-01,-3.204100e-02,1.576600e+01
-4.092600e-02,1.427200e-02,-1.500500e-01,-3.204100e-02,1.515600e+01
-7.312100e-02,6.486700e-02,-1.502200e-01,-3.204100e-02,1.429500e+01
-1.091400e-02,1.346500e-01,-1.504500e-01,-3.204100e-02,1.347000e+01
-3.274100e-03,1.381600e-01,-1.504600e-01,-3.204100e-02,1.261600e+01
9.549300e-03,1.763200e-01,-1.505900e-01,-3.204100e-02,1.195500e+01
5.456800e-01,6.608600e-01,-1.522100e-01,-3.204100e-02,1.316500e+01
5.533200e-01,7.189500e-01,-1.524100e-01,-3.204100e-02,1.481600e+01
5.598600e-01,7.389100e-01,-1.524800e-01,-3.204100e-02,1.551800e+01
5.729600e-01,7.398400e-01,-1.524800e-01,-3.204100e-02,1.537000e+01
5.776000e-01,7.433600e-01,-1.524900e-01,-3.204100e-02,1.434900e+01
5.811500e-01,7.988200e-01,-1.526800e-01,-3.204100e-02,1.237000e+01
-7.162000e-01,5.264200e-01,-1.517600e-01,-3.204100e-02,1.172100e+01
-9.849500e-01,7.902600e-01,-1.526500e-01,-3.204100e-02,1.139300e+01
-1.010900e+00,7.130000e-01,-1.523900e-01,-3.204100e-02,1.085000e+01
