0,0,-1.500000e-01,0,1.682800e+01
-4.092600e-02,1.792400e-02,-1.515000e-01,0,1.620300e+01
-7.312100e-02,6.463400e-02,-1.554200e-01,0,1.535400e+01
-1.091400e-02,1.340700e-01,-1.612500e-01,0,1.453700e+01
-3.274100e-03,1.380600e-01,-1.615800e-01,0,1.368700e+01
1.145900e-02,1.803000e-01,-1.651300e-01,0,1.307600e+01
5.525000e-01,6.560800e-01,-2.050500e-01,0,1.422800e+01
5.533200e-01,7.194800e-01,-2.103700e-01,0,1.589500e+01
5.598600e-01,7.434000e-01,-2.123800e-01,0,1.660300e+01
5.729600e-01,7.500900e-01,-2.129400e-01,0,1.644500e+01
5.855100e-01,7.406000e-01,-2.121500e-01,0,1.539200e+01
5.729600e-01,7.311500e-01,-2.113500e-01,0,1.336000e+01
-7.328400e-01,6.725200e-01,-2.064300e-01,0,1.207400e+01
-1.002700e+00,5.882000e-01,-1.993600e-01,0,1.294400e+01
-9.724000e-01,5.341700e-01,-1.948200e-01,0,1.338500e+01
-9.691200e-01,2.414000e-01,-1.702600e-01,0,1.249000e+01
-1.005700e+00,7.611600e-01,-2.138700e-01,0,1.235100e+01
-1.021500e+00,7.653700e-01,-2.142200e-01,0,1.200500e+01
-1.091400e+00,7.243000e-01,-2.107800e-01,0,1.052800e+01
0,0,-1.500000e-01,3.204100e-02,1.582900e+01
-4.092600e-02,2.212100e-02,-1.518600e-01,3.204100e-02,1.518200e+01
-7.312100e-02,6.511700e-02,-1.554600e-01,3.204100e-02,1.433800e+01
-1.091400e-02,1.346700e-01,-1.613000e-01,3.204100e-02,1.351800e+01
-3.274100e-03,1.403100e-01,-1.617700e-01,3.204100e-02,1.270100e+01
9.549300e-03,1.829100e-01,-1.653500e-01,3.204100e-02,1.208500e+01
5.525000e-01,6.548100e-01,-2.049500e-01,3.204100e-02,1.322200e+01
5.533200e-01,7.196700e-01,-2.103900e-01,3.204100e-02,1.489400e+01
5.598600e-01,7.448100e-01,-2.125000e-01,3.204100e-02,1.560400e+01
5.729600e-01,7.544100e-01,-2.133000e-01,3.204100e-02,1.542100e+01
6.013400e-01,7.457500e-01,-2.125800e-01,3.204100e-02,1.416200e+01
6.089800e-01,8.440100e-01,-2.208200e-01,3.204100e-02,1.180100e+01
-7.235700e-01,7.005500e-01,-2.087800e-01,3.204100e-02,1.094900e+01
-1.002700e+00,5.928700e-01,-1.997500e-01,3.204100e-02,1.177700e+01
-9.625700e-01,5.621800e-01,-1.971700e-01,3.204100e-02,1.231000e+01
-9.792200e-01,1.890000e-01,-1.658600e-01,3.204100e-02,1.138000e+01
-1.016000e+00,7.411900e-01,-2.121900e-01,3.204100e-02,1.125400e+01
-1.042800e+00,7.096300e-01,-2.095500e-01,3.204100e-02,1.107500e+01
0,0,-1.500000e-01,6.408200e-02,1.050300e+01
5.042100e-01,6.868100e-01,-2.076300e-01,6.408200e-02,1.040400e+01
5.063900e-01,7.121900e-01,-2.097600e-01,6.408200e-02,1.125500e+01
5.238500e-01,7.865900e-01,-2.160000e-01,6.408200e-02,1.131700e+01
5.666900e-01,8.607800e-01,-2.222300e-01,6.408200e-02,1.047000e+01
-5.102100e-01,9.796200e-01,-2.322000e-01,-1.089400e+00,9.886300e+00
-5.252100e-01,1.006400e+00,-2.344500e-01,-1.089400e+00,1.090300e+01
-5.500400e-01,1.037500e+00,-2.370600e-01,-1.089400e+00,1.118500e+01
-5.754200e-01,1.070200e+00,-2.398000e-01,-1.089400e+00,1.044300e+01
-5.598600e-01,1.067800e+00,-2.396000e-01,-1.057400e+00,1.001800e+01
-4.638300e-01,8.801300e-01,-2.238500e-01,-1.025300e+00,1.010200e+01
-4.870200e-01,9.343200e-01,-2.284000e-01,-1.025300e+00,1.014700e+01
-4.911100e-01,9.603200e-01,-2.305800e-01,-1.025300e+00,1.002400e+01
-2.031600e+00,1.436900e+00,-2.705700e-01,-1.025300e+00,1.011800e+01
-2.099800e+00,1.090500e+00,-2.415000e-01,-1.025300e+00,1.031900e+01
-4.774700e-01,9.148600e-01,-2.267700e-01,-9.932700e-01,9.887300e+00
-4.911100e-01,8.874600e-01,-2.244700e-01,-9.932700e-01,9.914900e+00
-2.071400e+00,1.462900e+00,-2.727600e-01,-9.932700e-01,1.036800e+01
-2.120000e+00,1.303800e+00,-2.594100e-01,-9.932700e-01,1.058300e+01
-1.334200e+00,5.505400e+00,-6.119700e-01,-9.932700e-01,1.026800e+01
-1.281800e+00,5.465500e+00,-6.086200e-01,-9.612300e-01,1.090900e+01
-1.289700e+00,5.500900e+00,-6.116000e-01,-9.612300e-01,1.154600e+01
-1.297600e+00,5.530600e+00,-6.140800e-01,-9.612300e-01,1.124400e+01
-1.350500e+00,5.492000e+00,-6.108400e-01,-9.612300e-01,1.023400e+01
0,0,-1.500000e-01,-9.291900e-01,9.366900e+00
-1.281800e+00,5.487000e+00,-6.104300e-01,-9.291900e-01,1.043300e+01
-1.245200e+00,5.534400e+00,-6.144100e-01,-9.291900e-01,1.109000e+01
-1.208100e+00,5.575800e+00,-6.178800e-01,-9.291900e-01,1.083800e+01
5.042100e-01,6.558400e-01,-2.050300e-01,-6.728600e-01,9.925300e+00
5.301200e-01,6.749600e-01,-2.066400e-01,-6.728600e-01,9.912700e+00
5.222100e-01,6.149800e-01,-2.016000e-01,-6.087800e-01,9.858300e+00
5.565900e-01,3.676600e-01,-1.808500e-01,-6.087800e-01,9.792500e+00
-2.327900e+00,1.171500e+00,-2.483000e-01,-6.087800e-01,1.021000e+01
-2.379100e+00,1.448600e+00,-2.715500e-01,-6.087800e-01,1.008400e+01
-1.745900e+00,1.198100e-01,2.222500e+00,-6.087800e-01,1.002400e+01
5.252100e-01,3.252300e-01,-1.772900e-01,-5.126600e-01,9.160900e+00
5.320300e-01,4.216100e-01,-1.853800e-01,-5.126600e-01,1.023900e+01
5.451300e-01,4.314200e-01,-1.862000e-01,-5.126600e-01,1.058700e+01
5.424000e-01,5.044600e-01,-1.923300e-01,-5.126600e-01,1.022000e+01
5.222100e-01,6.327600e-01,-2.031000e-01,-5.126600e-01,1.001100e+01
5.484000e-01,6.597500e-01,-2.053600e-01,-5.126600e-01,9.729800e+00
5.252100e-01,4.454000e-01,-1.873700e-01,-4.806200e-01,9.794200e+00
5.320300e-01,4.297100e-01,-1.860600e-01,-4.806200e-01,1.105400e+01
5.451300e-01,4.167200e-01,-1.849700e-01,-4.806200e-01,1.144100e+01
5.424000e-01,4.744200e-01,-1.898100e-01,-4.806200e-01,1.121500e+01
5.380400e-01,6.706700e-01,-2.062800e-01,-4.806200e-01,1.102700e+01
5.484000e-01,7.904000e-01,-2.163200e-01,-4.806200e-01,1.078500e+01
5.047500e-01,4.863200e-01,-1.908100e-01,-4.485700e-01,9.999900e+00
5.320300e-01,4.388200e-01,-1.868200e-01,-4.485700e-01,1.110400e+01
5.525000e-01,4.064000e-01,-1.841000e-01,-4.485700e-01,1.123600e+01
5.424000e-01,5.801800e-01,-1.986800e-01,-4.485700e-01,1.076000e+01
5.222100e-01,7.584700e-01,-2.136400e-01,-4.485700e-01,1.130000e+01
5.238500e-01,8.128700e-01,-2.182100e-01,-4.485700e-01,1.119600e+01
5.328500e-01,8.513000e-01,-2.214300e-01,-4.485700e-01,1.038000e+01
4.979300e-01,4.266700e-01,-1.858000e-01,-4.165300e-01,1.030600e+01
5.178500e-01,4.502600e-01,-1.877800e-01,-4.165300e-01,1.110000e+01
5.304000e-01,4.936400e-01,-1.914200e-01,-4.165300e-01,1.122400e+01
5.118400e-01,6.480600e-01,-2.043800e-01,-4.165300e-01,1.136300e+01
5.063900e-01,7.334600e-01,-2.115500e-01,-4.165300e-01,1.167100e+01
5.238500e-01,7.769700e-01,-2.152000e-01,-4.165300e-01,1.140100e+01
5.159400e-01,8.166200e-01,-2.185200e-01,-4.165300e-01,1.028700e+01
0,0,-1.500000e-01,-1.602100e-01,9.410700e+00
5.967000e-01,1.788500e-01,-1.650100e-01,-1.602100e-01,9.888600e+00
5.882400e-01,2.369200e-01,-1.698800e-01,-1.602100e-01,1.060000e+01
5.538600e-01,3.629200e-01,-1.804500e-01,-1.602100e-01,1.112900e+01
5.565900e-01,5.609600e-01,-1.970700e-01,-1.602100e-01,1.096100e+01
5.836000e-01,8.245400e-01,-2.191900e-01,-1.602100e-01,1.021600e+01
5.238500e-01,8.741600e-01,-2.233500e-01,-1.602100e-01,1.040100e+01
5.222100e-01,9.192000e-01,-2.271300e-01,-1.602100e-01,1.031300e+01
5.380400e-01,4.814500e-01,-1.904000e-01,-1.281600e-01,1.148200e+01
5.565900e-01,6.578700e-01,-2.052000e-01,-1.281600e-01,1.186900e+01
6.258900e-01,8.536000e-01,-2.216300e-01,-1.281600e-01,1.060400e+01
4.540000e-01,8.380600e-01,-2.203200e-01,-1.281600e-01,1.065700e+01
5.042100e-01,8.353200e-01,-2.200900e-01,-1.281600e-01,1.076800e+01
0,0,-1.500000e-01,-9.612300e-02,1.011700e+01
-8.185100e-04,3.445700e-02,-1.528900e-01,-9.612300e-02,9.403700e+00
5.156600e-01,7.583900e-01,-2.136400e-01,-9.612300e-02,9.723300e+00
3.285000e-01,3.322900e-01,-1.778800e-01,-9.612300e-02,1.094600e+01
5.143000e-01,7.767700e-01,-2.151800e-01,-9.612300e-02,1.262900e+01
5.484000e-01,8.237400e-01,-2.191200e-01,-9.612300e-02,1.292100e+01
5.836000e-01,8.904700e-01,-2.247200e-01,-9.612300e-02,1.199500e+01
4.365400e-01,7.332400e-01,-2.115300e-01,-9.612300e-02,1.118700e+01
4.952000e-01,7.096600e-01,-2.095500e-01,-9.612300e-02,1.065900e+01
0,0,-1.500000e-01,-6.408200e-02,1.064500e+01
1.364200e-03,3.480700e-02,-1.529200e-01,-6.408200e-02,1.043900e+01
-2.401000e-02,4.507300e-02,-1.537800e-01,-6.408200e-02,9.478800e+00
2.597400e-01,1.252900e-01,-1.605100e-01,-6.408200e-02,1.217900e+01
5.696900e-01,7.861900e-01,-2.159700e-01,-6.408200e-02,1.302300e+01
5.565900e-01,8.247500e-01,-2.192100e-01,-6.408200e-02,1.302200e+01
5.063900e-01,5.955000e-01,-1.999700e-01,-6.408200e-02,1.102300e+01
5.222100e-01,7.535300e-01,-2.132300e-01,-6.408200e-02,1.034700e+01
5.380400e-01,8.600400e-01,-2.221700e-01,-6.408200e-02,1.030200e+01
5.729600e-01,8.910900e-01,-2.247700e-01,-6.408200e-02,1.027500e+01
0,0,-1.500000e-01,-3.204100e-02,1.580000e+01
-4.092600e-02,9.106300e-03,-1.507600e-01,-3.204100e-02,1.519200e+01
-7.312100e-02,6.301000e-02,-1.552900e-01,-3.204100e-02,1.432900e+01
-1.091400e-02,1.328200e-01,-1.611500e-01,-3.204100e-02,1.351400e+01
-3.274100e-03,1.369500e-01,-1.614900e-01,-3.204100e-02,1.265500e+01
1.145900e-02,1.835500e-01,-1.654000e-01,-3.204100e-02,1.203200e+01
5.525000e-01,6.525000e-01,-2.047500e-01,-3.204100e-02,1.320000e+01
5.533200e-01,7.195100e-01,-2.103800e-01,-3.204100e-02,1.485700e+01
5.598600e-01,7.425500e-01,-2.123100e-01,-3.204100e-02,1.557300e+01
5.729600e-01,7.438300e-01,-2.124200e-01,-3.204100e-02,1.546800e+01
5.934200e-01,6.997800e-01,-2.087200e-01,-3.204100e-02,1.458800e+01
5.975200e-01,4.750400e-01,-1.898600e-01,-3.204100e-02,1.287600e+01
4.862000e-01,5.798000e-01,-1.986500e-01,-3.204100e-02,1.071500e+01
5.380400e-01,3.431800e-01,-1.788000e-01,-3.204100e-02,1.138400e+01
-1.012200e+00,5.670700e-01,-1.975800e-01,-3.204100e-02,1.202000e+01
-9.822200e-01,5.265800e-01,-1.941900e-01,-3.204100e-02,1.240500e+01
-9.691200e-01,2.489000e-01,-1.708900e-01,-3.204100e-02,1.152200e+01
-9.849500e-01,7.857400e-01,-2.159300e-01,-3.204100e-02,1.144500e+01
-1.010900e+00,7.892500e-01,-2.162300e-01,-3.204100e-02,1.106800e+01
