0,0,-1.500000e-01,0,1.680600e+01
-7.202900e-02,6.773900e-02,-1.514200e-01,0,1.532400e+01
-1.227800e-02,1.315800e-01,-1.527600e-01,0,1.446300e+01
-3.274100e-03,1.327700e-01,-1.527800e-01,0,1.360700e+01
1.336900e-02,1.732400e-01,-1.536300e-01,0,1.297400e+01
2.523800e-01,2.289500e-01,-1.548000e-01,0,1.357400e+01
5.533200e-01,7.199400e-01,-1.650800e-01,0,1.499000e+01
5.672300e-01,7.466900e-01,-1.656400e-01,0,1.558300e+01
5.806000e-01,7.699700e-01,-1.661300e-01,0,1.531000e+01
5.776000e-01,8.127300e-01,-1.670200e-01,0,1.406100e+01
5.238500e-01,8.703700e-01,-1.682300e-01,0,1.290000e+01
-7.792300e-01,6.885400e-01,-1.644200e-01,0,1.157800e+01
-9.358400e-01,6.249100e-01,-1.630900e-01,0,1.292800e+01
-9.036400e-01,6.163800e-01,-1.629100e-01,0,1.373200e+01
-9.388400e-01,7.062500e-01,-1.647900e-01,0,1.319100e+01
-1.016000e+00,7.799900e-01,-1.663400e-01,0,1.237600e+01
-1.032100e+00,7.883600e-01,-1.665100e-01,0,1.178000e+01
-1.058600e+00,8.247000e-01,-1.672700e-01,0,1.045100e+01
0,0,-1.500000e-01,3.204100e-02,1.578800e+01
-4.174400e-02,3.861200e-03,-1.500800e-01,3.204100e-02,1.517100e+01
-7.202900e-02,7.003200e-02,-1.514700e-01,3.204100e-02,1.432000e+01
-1.227800e-02,1.330800e-01,-1.527900e-01,3.204100e-02,1.346300e+01
-3.274100e-03,1.351700e-01,-1.528300e-01,3.204100e-02,1.259700e+01
1.336900e-02,1.746000e-01,-1.536600e-01,3.204100e-02,1.196900e+01
2.455500e-01,2.316300e-01,-1.548500e-01,3.204100e-02,1.259300e+01
5.533200e-01,7.199400e-01,-1.650800e-01,3.204100e-02,1.396100e+01
5.672300e-01,7.477700e-01,-1.656600e-01,3.204100e-02,1.450700e+01
5.806000e-01,7.735500e-01,-1.662000e-01,3.204100e-02,1.415600e+01
5.538600e-01,8.096100e-01,-1.669600e-01,3.204100e-02,1.321000e+01
5.565900e-01,8.224200e-01,-1.672300e-01,3.204100e-02,1.297300e+01
5.836000e-01,8.681200e-01,-1.681800e-01,3.204100e-02,1.164400e+01
-8.498900e-01,6.181200e-01,-1.629500e-01,3.204100e-02,1.281400e+01
-8.741700e-01,6.405200e-01,-1.634200e-01,3.204100e-02,1.354600e+01
-9.186500e-01,7.143800e-01,-1.649600e-01,3.204100e-02,1.297600e+01
-1.026400e+00,7.716500e-01,-1.661600e-01,3.204100e-02,1.136100e+01
-1.053400e+00,7.450000e-01,-1.656000e-01,3.204100e-02,1.071500e+01
1.260500e+00,1.671800e+00,-1.850200e-01,3.204100e-02,1.007600e+01
0,0,-1.500000e-01,6.408200e-02,1.061000e+01
4.714600e-01,5.317400e-01,-1.611400e-01,6.408200e-02,9.661700e+00
4.911100e-01,5.806800e-01,-1.621600e-01,6.408200e-02,9.844400e+00
5.042100e-01,7.606200e-01,-1.659300e-01,6.408200e-02,1.137100e+01
5.301200e-01,7.886100e-01,-1.665200e-01,6.408200e-02,1.205700e+01
5.484000e-01,8.310000e-01,-1.674100e-01,6.408200e-02,1.172000e+01
5.666900e-01,9.058800e-01,-1.689700e-01,6.408200e-02,1.029900e+01
-7.735000e-01,3.446500e-01,-1.572200e-01,6.408200e-02,1.166300e+01
-8.152400e-01,5.814300e-01,-1.621800e-01,6.408200e-02,1.223600e+01
-8.580800e-01,7.240100e-01,-1.651700e-01,6.408200e-02,1.170800e+01
1.227800e+00,1.690800e+00,-1.854200e-01,6.408200e-02,9.966200e+00
6.875500e-01,7.614800e-01,-1.659500e-01,1.281600e-01,9.680300e+00
7.443000e-01,6.255600e-01,-1.631000e-01,1.281600e-01,9.468100e+00
1.125500e+00,1.549600e+00,-1.824600e-01,1.281600e-01,9.815900e+00
0,0,-1.500000e-01,1.602100e-01,9.734800e+00
1.065400e+00,1.583700e+00,-1.831700e-01,1.602100e-01,9.841400e+00
-9.625700e-01,1.950100e+00,-1.908500e-01,-1.249600e+00,1.096100e+01
-9.778500e-01,1.970200e+00,-1.912700e-01,-1.249600e+00,1.128200e+01
-1.028600e+00,1.950400e+00,-1.908500e-01,-1.249600e+00,1.067900e+01
-9.642100e-01,1.869700e+00,-1.891600e-01,-1.217600e+00,9.944000e+00
-9.625700e-01,1.934600e+00,-1.905200e-01,-1.217600e+00,1.094600e+01
-9.953100e-01,1.959200e+00,-1.910400e-01,-1.217600e+00,1.125500e+01
-1.046300e+00,1.967000e+00,-1.912000e-01,-1.217600e+00,1.073700e+01
-1.014100e+00,1.946100e+00,-1.907600e-01,-1.185500e+00,1.034500e+01
-1.030200e+00,1.972600e+00,-1.913200e-01,-1.185500e+00,1.090600e+01
-1.028600e+00,2.011300e+00,-1.921300e-01,-1.185500e+00,1.071000e+01
-9.472900e-01,1.937000e+00,-1.905700e-01,-1.153500e+00,1.140300e+01
-9.625700e-01,1.960300e+00,-1.910600e-01,-1.153500e+00,1.256500e+01
-9.953100e-01,1.982000e+00,-1.915100e-01,-1.153500e+00,1.274600e+01
-1.028600e+00,2.006000e+00,-1.920200e-01,-1.153500e+00,1.195100e+01
-9.985900e-02,4.178000e+00,-2.375100e-01,-1.153500e+00,1.001700e+01
-9.303800e-01,1.939600e+00,-1.906300e-01,-1.121400e+00,1.155200e+01
-9.453800e-01,1.968100e+00,-1.912200e-01,-1.121400e+00,1.280400e+01
-9.778500e-01,1.988300e+00,-1.916500e-01,-1.121400e+00,1.308300e+01
-1.010900e+00,2.009300e+00,-1.920900e-01,-1.121400e+00,1.239700e+01
-1.044400e+00,2.023300e+00,-1.923800e-01,-1.121400e+00,1.063700e+01
-9.904000e-02,4.213500e+00,-2.382600e-01,-1.121400e+00,1.062300e+01
-1.331500e-01,4.246000e+00,-2.389400e-01,-1.121400e+00,1.097500e+01
-1.342400e-01,4.291000e+00,-2.398800e-01,-1.121400e+00,1.047500e+01
-8.796300e-01,1.955400e+00,-1.909600e-01,-1.089400e+00,1.058100e+01
-9.110100e-01,1.988000e+00,-1.916400e-01,-1.089400e+00,1.199500e+01
-9.429300e-01,2.010000e+00,-1.921000e-01,-1.089400e+00,1.241000e+01
-9.754000e-01,2.031200e+00,-1.925500e-01,-1.089400e+00,1.188500e+01
-1.044400e+00,2.023500e+00,-1.923900e-01,-1.089400e+00,1.024300e+01
-3.301300e-02,4.217400e+00,-2.383400e-01,-1.089400e+00,1.011500e+01
-6.657300e-02,4.258500e+00,-2.392000e-01,-1.089400e+00,1.028700e+01
-6.711800e-02,4.265900e+00,-2.393500e-01,-1.089400e+00,9.979900e+00
-1.186800e+00,1.632500e+00,-1.841900e-01,-1.057400e+00,1.029200e+01
-1.255600e+00,1.626400e+00,-1.840700e-01,-1.057400e+00,1.031500e+01
-1.326000e+00,1.609700e+00,-1.837200e-01,-1.057400e+00,9.657100e+00
-9.625700e-01,1.942500e+00,-1.906900e-01,-1.057400e+00,1.042900e+01
-9.778500e-01,1.983700e+00,-1.915500e-01,-1.057400e+00,1.124500e+01
-1.010900e+00,2.008500e+00,-1.920700e-01,-1.057400e+00,1.101500e+01
-1.218500e+00,1.612200e+00,-1.837700e-01,-1.025300e+00,1.048100e+01
-1.271700e+00,1.611900e+00,-1.837600e-01,-1.025300e+00,1.130700e+01
-1.326000e+00,1.597600e+00,-1.834600e-01,-1.025300e+00,1.120400e+01
-1.414700e+00,1.498200e+00,-1.813800e-01,-1.025300e+00,1.021800e+01
-9.453800e-01,1.965900e+00,-1.911800e-01,-1.025300e+00,1.159000e+01
-9.778500e-01,1.990400e+00,-1.916900e-01,-1.025300e+00,1.194700e+01
-9.931300e-01,2.027400e+00,-1.924700e-01,-1.025300e+00,1.129000e+01
-1.202700e+00,1.625200e+00,-1.840400e-01,-9.932700e-01,1.022100e+01
-1.271700e+00,1.596200e+00,-1.834300e-01,-9.932700e-01,1.143200e+01
-1.309600e+00,1.590400e+00,-1.833100e-01,-9.932700e-01,1.161800e+01
-1.364700e+00,1.563200e+00,-1.827400e-01,-9.932700e-01,1.089100e+01
-8.796300e-01,1.960600e+00,-1.910700e-01,-9.932700e-01,9.998500e+00
-9.453800e-01,1.981900e+00,-1.915100e-01,-9.932700e-01,1.045000e+01
-1.186800e+00,1.635300e+00,-1.842500e-01,-9.612300e-01,1.051600e+01
-1.255600e+00,1.613000e+00,-1.837900e-01,-9.612300e-01,1.110000e+01
-1.293300e+00,1.606500e+00,-1.836500e-01,-9.612300e-01,1.122500e+01
-1.331500e+00,1.619800e+00,-1.839300e-01,-9.612300e-01,1.060600e+01
-2.799300e-01,1.842700e+00,-1.886000e-01,-9.291900e-01,1.013500e+01
-2.701100e-01,1.867200e+00,-1.891100e-01,-9.291900e-01,1.023500e+01
-1.326000e+00,1.575800e+00,-1.830100e-01,-9.291900e-01,1.033500e+01
-1.431300e+00,1.571800e+00,-1.829200e-01,-9.291900e-01,9.913500e+00
-1.012800e+00,1.951200e+00,-1.908700e-01,-9.291900e-01,1.000800e+01
-7.153800e-01,3.909300e+00,-2.318800e-01,-9.291900e-01,1.112100e+01
-7.216600e-01,3.948400e+00,-2.327000e-01,-9.291900e-01,1.143000e+01
-7.595800e-01,3.977100e+00,-2.333100e-01,-9.291900e-01,1.068100e+01
-1.331500e-01,4.245500e+00,-2.389300e-01,-9.291900e-01,1.053400e+01
-3.094000e-01,1.779400e+00,-1.872700e-01,-8.971500e-01,1.025900e+01
-3.151300e-01,1.816200e+00,-1.880400e-01,-8.971500e-01,1.038800e+01
-1.119700e+00,1.645800e+00,-1.844700e-01,-8.971500e-01,1.006900e+01
-1.186800e+00,1.625800e+00,-1.840500e-01,-8.971500e-01,1.071800e+01
-1.223400e+00,1.639000e+00,-1.843300e-01,-8.971500e-01,1.044300e+01
-9.797600e-01,1.923200e+00,-1.902800e-01,-8.971500e-01,1.006800e+01
-1.012800e+00,1.955800e+00,-1.909700e-01,-8.971500e-01,1.021500e+01
-6.842800e-01,3.921200e+00,-2.321300e-01,-8.971500e-01,1.039600e+01
-6.589000e-01,3.954600e+00,-2.328300e-01,-8.971500e-01,1.051800e+01
-6.602700e-02,4.219800e+00,-2.383900e-01,-8.971500e-01,1.013100e+01
-6.657300e-02,4.260100e+00,-2.392300e-01,-8.971500e-01,1.037700e+01
-8.766300e-01,2.016200e+00,-1.922300e-01,-8.330700e-01,1.003700e+01
-9.080100e-01,2.042300e+00,-1.927800e-01,-8.330700e-01,1.022500e+01
-6.602700e-02,4.224100e+00,-2.384800e-01,-8.330700e-01,1.012700e+01
-1.664300e-01,4.256400e+00,-2.391500e-01,-8.330700e-01,1.046200e+01
-6.602700e-02,4.225200e+00,-2.385000e-01,-8.010300e-01,1.028900e+01
-9.985900e-02,4.259400e+00,-2.392200e-01,-8.010300e-01,1.081000e+01
-1.006800e-01,4.294300e+00,-2.399500e-01,-8.010300e-01,1.038700e+01
-6.657300e-02,4.257100e+00,-2.391700e-01,-7.689800e-01,1.070900e+01
-1.006800e-01,4.292800e+00,-2.399200e-01,-7.689800e-01,1.042100e+01
-1.056200e+00,2.548800e+00,-2.033900e-01,-5.126600e-01,1.082600e+01
-1.069500e+00,2.577200e+00,-2.039800e-01,-5.126600e-01,1.137500e+01
-1.105000e+00,2.586800e+00,-2.041800e-01,-5.126600e-01,1.112200e+01
-1.141000e+00,2.571600e+00,-2.038700e-01,-5.126600e-01,1.012200e+01
-1.099300e+00,2.530200e+00,-2.030000e-01,-4.806200e-01,1.132100e+01
-1.113200e+00,2.562300e+00,-2.036700e-01,-4.806200e-01,1.192100e+01
-1.127100e+00,2.593100e+00,-2.043200e-01,-4.806200e-01,1.188800e+01
-1.208100e+00,2.586000e+00,-2.041700e-01,-4.806200e-01,1.113300e+01
-1.245500e+00,2.614500e+00,-2.047600e-01,-4.806200e-01,1.021400e+01
-1.260500e+00,2.648700e+00,-2.054800e-01,-4.806200e-01,1.049000e+01
-1.056200e+00,2.545300e+00,-2.033100e-01,-4.485700e-01,1.017200e+01
-1.113200e+00,2.538400e+00,-2.031700e-01,-4.485700e-01,1.004100e+01
-1.149200e+00,2.584500e+00,-2.041400e-01,-4.485700e-01,1.056800e+01
-1.185800e+00,2.600800e+00,-2.044800e-01,-4.485700e-01,1.038800e+01
-1.260500e+00,2.648700e+00,-2.054800e-01,-4.485700e-01,9.975600e+00
5.661400e-01,5.793800e-01,-1.621400e-01,-2.883700e-01,1.022800e+01
5.746000e-01,5.504600e-01,-1.615300e-01,-2.883700e-01,1.161900e+01
5.967000e-01,5.347800e-01,-1.612000e-01,-2.883700e-01,1.193500e+01
6.035200e-01,5.620800e-01,-1.617700e-01,-2.883700e-01,1.127500e+01
5.855100e-01,6.818100e-01,-1.642800e-01,-2.883700e-01,1.076200e+01
5.729600e-01,7.470000e-01,-1.656500e-01,-2.883700e-01,1.026000e+01
0,0,-1.500000e-01,-2.563300e-01,9.332500e+00
5.604100e-01,5.478600e-01,-1.614800e-01,-2.563300e-01,1.170400e+01
5.893300e-01,5.472200e-01,-1.614600e-01,-2.563300e-01,1.210700e+01
6.264400e-01,5.964800e-01,-1.624900e-01,-2.563300e-01,1.130700e+01
6.409000e-01,7.176000e-01,-1.650300e-01,-2.563300e-01,1.005800e+01
4.979300e-01,5.369700e-01,-1.612500e-01,-2.242900e-01,9.530100e+00
5.391300e-01,5.464500e-01,-1.614500e-01,-2.242900e-01,1.159900e+01
5.893300e-01,5.444200e-01,-1.614000e-01,-2.242900e-01,1.187600e+01
3.514200e-01,5.576100e-01,-1.616800e-01,-2.242900e-01,1.071000e+01
4.905600e-01,5.249500e-01,-1.610000e-01,-2.242900e-01,1.154000e+01
5.402200e-01,4.996700e-01,-1.604700e-01,-2.242900e-01,1.108900e+01
5.249400e-01,5.151200e-01,-1.607900e-01,-1.922500e-01,1.071900e+01
5.893300e-01,4.220100e-01,-1.588400e-01,-1.922500e-01,1.080400e+01
4.125300e-01,7.740600e-01,-1.662100e-01,-1.922500e-01,1.065900e+01
5.063900e-01,6.443200e-01,-1.635000e-01,-1.922500e-01,1.150300e+01
5.484000e-01,5.969100e-01,-1.625000e-01,-1.922500e-01,1.104500e+01
2.341000e-01,2.468200e-01,-1.551700e-01,-1.602100e-01,1.015100e+01
5.893300e-01,7.358800e-01,-1.654100e-01,-1.602100e-01,1.140500e+01
6.111600e-01,7.562200e-01,-1.658400e-01,-1.602100e-01,1.193100e+01
6.329800e-01,7.892000e-01,-1.665300e-01,-1.602100e-01,1.139300e+01
6.630000e-01,6.003500e-01,-1.625700e-01,-1.602100e-01,1.057200e+01
0,0,-1.500000e-01,-1.281600e-01,9.586700e+00
5.178500e-01,6.624400e-01,-1.638800e-01,-1.281600e-01,1.158200e+01
5.451300e-01,6.762200e-01,-1.641600e-01,-1.281600e-01,1.303500e+01
5.729600e-01,6.761900e-01,-1.641600e-01,-1.281600e-01,1.333700e+01
6.171600e-01,6.467400e-01,-1.635500e-01,-1.281600e-01,1.241400e+01
7.448500e-01,5.983600e-01,-1.625300e-01,-1.281600e-01,1.094700e+01
5.836000e-01,7.454600e-01,-1.656100e-01,-1.281600e-01,1.013500e+01
0,0,-1.500000e-01,-9.612300e-02,9.592100e+00
5.391300e-01,6.889100e-01,-1.644300e-01,-9.612300e-02,1.203900e+01
5.451300e-01,7.122600e-01,-1.649200e-01,-9.612300e-02,1.358600e+01
5.576800e-01,7.266200e-01,-1.652200e-01,-9.612300e-02,1.410600e+01
5.776000e-01,7.400800e-01,-1.655000e-01,-9.612300e-02,1.375400e+01
5.975200e-01,7.754500e-01,-1.662400e-01,-9.612300e-02,1.250800e+01
6.174300e-01,8.798800e-01,-1.684300e-01,-9.612300e-02,1.044200e+01
0,0,-1.500000e-01,-6.408200e-02,9.874700e+00
-3.301300e-02,4.965700e-03,-1.501000e-01,-6.408200e-02,9.582200e+00
-6.493600e-02,1.804100e-02,-1.503800e-01,-6.408200e-02,9.524400e+00
6.188000e-01,7.101600e-01,-1.648800e-01,-6.408200e-02,1.286200e+01
6.111600e-01,7.482300e-01,-1.656700e-01,-6.408200e-02,1.313900e+01
5.855100e-01,7.733800e-01,-1.662000e-01,-6.408200e-02,1.342200e+01
5.893300e-01,8.010200e-01,-1.667800e-01,-6.408200e-02,1.300900e+01
6.089800e-01,8.382900e-01,-1.675600e-01,-6.408200e-02,1.165200e+01
0,0,-1.500000e-01,-3.204100e-02,1.579100e+01
-7.202900e-02,6.496700e-02,-1.513600e-01,-3.204100e-02,1.429500e+01
-1.227800e-02,1.310800e-01,-1.527500e-01,-3.204100e-02,1.345000e+01
-3.274100e-03,1.309900e-01,-1.527400e-01,-3.204100e-02,1.253300e+01
1.527900e-02,1.709700e-01,-1.535800e-01,-3.204100e-02,1.193700e+01
2.455500e-01,1.803200e-01,-1.537800e-01,-3.204100e-02,1.264000e+01
5.533200e-01,7.193400e-01,-1.650700e-01,-3.204100e-02,1.404300e+01
5.598600e-01,7.444100e-01,-1.655900e-01,-3.204100e-02,1.469500e+01
5.653200e-01,7.609700e-01,-1.659400e-01,-3.204100e-02,1.459600e+01
5.538600e-01,7.930000e-01,-1.666100e-01,-3.204100e-02,1.369800e+01
5.074800e-01,8.441000e-01,-1.676800e-01,-3.204100e-02,1.200800e+01
-8.627100e-01,7.342000e-01,-1.653800e-01,-3.204100e-02,1.060800e+01
-9.644800e-01,6.403500e-01,-1.634100e-01,-3.204100e-02,1.178200e+01
-9.134600e-01,6.134500e-01,-1.628500e-01,-3.204100e-02,1.250800e+01
-9.388400e-01,7.115100e-01,-1.649000e-01,-3.204100e-02,1.204900e+01
-1.005700e+00,7.508100e-01,-1.657300e-01,-3.204100e-02,1.143100e+01
-1.053400e+00,7.137500e-01,-1.649500e-01,-3.204100e-02,1.077800e+01
