0,0,-1.500000e-01,0,1.680000e+01
-4.092600e-02,2.017900e-02,-1.511000e-01,0,1.620200e+01
-7.312100e-02,6.514900e-02,-1.535600e-01,0,1.535400e+01
-1.091400e-02,1.341200e-01,-1.573400e-01,0,1.454000e+01
-4.911100e-03,1.350400e-01,-1.573900e-01,0,1.364800e+01
9.549300e-03,1.743500e-01,-1.595400e-01,0,1.304300e+01
5.593200e-01,6.473400e-01,-1.854100e-01,0,1.421800e+01
5.533200e-01,7.192600e-01,-1.893400e-01,0,1.591700e+01
5.672300e-01,7.382500e-01,-1.903800e-01,0,1.661000e+01
5.806000e-01,7.484400e-01,-1.909400e-01,0,1.640400e+01
5.934200e-01,7.504400e-01,-1.910500e-01,0,1.523600e+01
-7.142900e-01,5.182200e-01,-1.783500e-01,0,1.199500e+01
-9.549300e-01,4.849700e-01,-1.765300e-01,0,1.308000e+01
-9.232800e-01,5.265800e-01,-1.788000e-01,0,1.385900e+01
-9.388400e-01,4.670100e-01,-1.755500e-01,0,1.322700e+01
-1.005700e+00,7.588800e-01,-1.915100e-01,0,1.207200e+01
-1.032100e+00,7.799900e-01,-1.926700e-01,0,1.193400e+01
-1.080400e+00,7.840100e-01,-1.928900e-01,0,1.069500e+01
0,0,-1.500000e-01,3.204100e-02,1.579300e+01
-4.092600e-02,2.444000e-02,-1.513400e-01,3.204100e-02,1.519300e+01
-7.312100e-02,6.635200e-02,-1.536300e-01,3.204100e-02,1.434200e+01
-1.227800e-02,1.337400e-01,-1.573200e-01,3.204100e-02,1.352500e+01
-4.911100e-03,1.374300e-01,-1.575200e-01,3.204100e-02,1.265200e+01
9.549300e-03,1.767600e-01,-1.596700e-01,3.204100e-02,1.205400e+01
5.593200e-01,6.475800e-01,-1.854200e-01,3.204100e-02,1.311600e+01
5.533200e-01,7.194700e-01,-1.893600e-01,3.204100e-02,1.477900e+01
5.672300e-01,7.398500e-01,-1.904700e-01,3.204100e-02,1.541500e+01
5.806000e-01,7.497400e-01,-1.910100e-01,3.204100e-02,1.509600e+01
5.855100e-01,7.485300e-01,-1.909500e-01,3.204100e-02,1.362900e+01
-7.514000e-01,2.841400e-01,-1.655400e-01,3.204100e-02,1.095400e+01
-9.358400e-01,3.579800e-01,-1.695800e-01,3.204100e-02,1.194200e+01
-9.134600e-01,4.925700e-01,-1.769400e-01,3.204100e-02,1.278300e+01
-9.287400e-01,4.772400e-01,-1.761100e-01,3.204100e-02,1.224900e+01
-9.745800e-01,7.349400e-01,-1.902000e-01,3.204100e-02,1.060400e+01
-1.042800e+00,7.972900e-01,-1.936100e-01,3.204100e-02,1.040600e+01
0,0,-1.500000e-01,6.408200e-02,1.014800e+01
3.961600e-01,3.310100e-01,-1.681100e-01,6.408200e-02,1.063600e+01
4.204400e-01,3.731100e-01,-1.704100e-01,6.408200e-02,1.115900e+01
4.518200e-01,3.846200e-01,-1.710400e-01,6.408200e-02,1.083900e+01
5.115700e-01,5.642400e-01,-1.808600e-01,6.408200e-02,1.000700e+01
5.391300e-01,7.103600e-01,-1.888600e-01,6.408200e-02,1.129900e+01
5.525000e-01,7.307800e-01,-1.899700e-01,6.408200e-02,1.267100e+01
5.729600e-01,7.494100e-01,-1.909900e-01,6.408200e-02,1.322700e+01
6.013400e-01,7.680900e-01,-1.920200e-01,6.408200e-02,1.309000e+01
6.220700e-01,7.851400e-01,-1.929500e-01,6.408200e-02,1.239600e+01
6.343500e-01,7.691000e-01,-1.920700e-01,6.408200e-02,1.120200e+01
0,0,-1.500000e-01,9.612300e-02,1.018600e+01
-3.055800e-02,1.548100e-02,-1.508500e-01,9.612300e-02,9.784600e+00
3.953400e-01,2.692400e-01,-1.647300e-01,9.612300e-02,9.708800e+00
4.141700e-01,3.548800e-01,-1.694100e-01,9.612300e-02,1.060100e+01
4.392700e-01,4.365500e-01,-1.738800e-01,9.612300e-02,1.090700e+01
4.649200e-01,5.101700e-01,-1.779100e-01,9.612300e-02,1.046300e+01
5.115700e-01,6.131400e-01,-1.835400e-01,9.612300e-02,9.574000e+00
5.009300e-01,4.579700e-01,-1.750500e-01,9.612300e-02,1.164800e+01
5.271200e-01,7.471700e-01,-1.908700e-01,9.612300e-02,1.225600e+01
5.696900e-01,8.372700e-01,-1.958000e-01,9.612300e-02,1.211200e+01
6.384400e-01,7.434500e-01,-1.906700e-01,9.612300e-02,1.177600e+01
6.681800e-01,8.504200e-01,-1.965200e-01,9.612300e-02,1.117600e+01
6.810000e-01,8.822800e-01,-1.982600e-01,9.612300e-02,1.030900e+01
0,0,-1.500000e-01,1.281600e-01,9.524300e+00
-1.473300e-02,1.059400e-02,-1.505800e-01,1.281600e-01,9.163900e+00
4.081700e-01,5.253400e-01,-1.787400e-01,1.281600e-01,9.977300e+00
4.141700e-01,5.462800e-01,-1.798800e-01,1.281600e-01,1.097200e+01
4.190800e-01,5.810800e-01,-1.817900e-01,1.281600e-01,1.078700e+01
3.819700e-01,5.430100e-01,-1.797000e-01,1.281600e-01,9.645100e+00
3.361400e-01,2.179100e-01,-1.619200e-01,1.281600e-01,1.170900e+01
6.250700e-01,7.473900e-01,-1.908800e-01,1.281600e-01,1.230500e+01
6.384400e-01,7.237800e-01,-1.895900e-01,1.281600e-01,1.286500e+01
6.512600e-01,7.749100e-01,-1.923900e-01,1.281600e-01,1.244500e+01
6.810000e-01,8.606200e-01,-1.970800e-01,1.281600e-01,1.113000e+01
0,0,-1.500000e-01,1.602100e-01,9.565500e+00
4.201700e-01,4.883200e-01,-1.767100e-01,1.602100e-01,9.954600e+00
4.204400e-01,5.484800e-01,-1.800000e-01,1.602100e-01,1.069100e+01
4.387200e-01,5.694700e-01,-1.811500e-01,1.602100e-01,1.060500e+01
4.706500e-01,5.901200e-01,-1.822800e-01,1.602100e-01,9.553200e+00
5.816900e-01,6.956000e-01,-1.880500e-01,1.602100e-01,9.832100e+00
6.040600e-01,7.117900e-01,-1.889400e-01,1.602100e-01,1.063700e+01
6.264400e-01,7.274500e-01,-1.897900e-01,1.602100e-01,1.107800e+01
6.329800e-01,7.561700e-01,-1.913600e-01,1.602100e-01,1.173200e+01
6.384400e-01,7.581100e-01,-1.914700e-01,1.602100e-01,1.201900e+01
6.512600e-01,7.714000e-01,-1.922000e-01,1.602100e-01,1.163900e+01
6.635400e-01,8.152700e-01,-1.946000e-01,1.602100e-01,1.011100e+01
0,0,-1.500000e-01,1.922500e-01,9.465500e+00
5.304000e-01,6.878300e-01,-1.876300e-01,1.922500e-01,1.078600e+01
5.576800e-01,6.927500e-01,-1.878900e-01,1.922500e-01,1.146800e+01
5.776000e-01,7.101800e-01,-1.888500e-01,1.922500e-01,1.125200e+01
6.138900e-01,7.251200e-01,-1.896700e-01,1.922500e-01,1.028100e+01
4.141700e-01,4.056000e-01,-1.721900e-01,2.242900e-01,9.563200e+00
4.452700e-01,3.956500e-01,-1.716400e-01,2.242900e-01,9.689300e+00
5.377600e-01,7.358200e-01,-1.902500e-01,2.242900e-01,1.060700e+01
5.500400e-01,7.443600e-01,-1.907200e-01,2.242900e-01,1.167500e+01
5.696900e-01,7.718100e-01,-1.922200e-01,2.242900e-01,1.186800e+01
5.893300e-01,8.073600e-01,-1.941600e-01,2.242900e-01,1.130600e+01
5.836000e-01,8.572600e-01,-1.968900e-01,2.242900e-01,9.864900e+00
5.451300e-01,7.673700e-01,-1.919800e-01,2.563300e-01,1.005100e+01
5.576800e-01,7.774400e-01,-1.925300e-01,2.563300e-01,1.118700e+01
5.776000e-01,7.963500e-01,-1.935600e-01,2.563300e-01,1.174300e+01
5.975200e-01,8.204600e-01,-1.948800e-01,2.563300e-01,1.152000e+01
6.089800e-01,8.445900e-01,-1.962000e-01,2.563300e-01,1.048900e+01
-1.751600e+00,3.291300e+00,-3.300400e-01,-1.538000e+00,1.045500e+01
-1.797500e+00,3.265300e+00,-3.286100e-01,-1.538000e+00,1.081800e+01
-1.843800e+00,3.255200e+00,-3.280600e-01,-1.538000e+00,1.028300e+01
-2.799300e+00,2.817400e+00,-3.041100e-01,-1.538000e+00,1.029500e+01
-1.224800e+00,1.948300e+00,-2.565800e-01,-1.505900e+00,9.732000e+00
-1.187400e+00,2.036100e+00,-2.613800e-01,-1.505900e+00,9.878100e+00
-1.722400e+00,3.309000e+00,-3.310100e-01,-1.505900e+00,1.079100e+01
-1.738500e+00,3.337200e+00,-3.325500e-01,-1.505900e+00,1.141700e+01
-1.754600e+00,3.360100e+00,-3.338000e-01,-1.505900e+00,1.114000e+01
-2.768200e+00,2.846700e+00,-3.057200e-01,-1.505900e+00,1.094100e+01
-2.761100e+00,2.904900e+00,-3.089000e-01,-1.505900e+00,1.086000e+01
-1.693200e+00,3.329900e+00,-3.321500e-01,-1.473900e+00,1.035000e+01
-1.709100e+00,3.361800e+00,-3.339000e-01,-1.473900e+00,1.111900e+01
-1.695100e+00,3.404800e+00,-3.362500e-01,-1.473900e+00,1.087600e+01
-2.713100e+00,2.825900e+00,-3.045800e-01,-1.473900e+00,1.057400e+01
-2.768200e+00,2.844800e+00,-3.056200e-01,-1.473900e+00,1.143700e+01
-2.792500e+00,2.874800e+00,-3.072600e-01,-1.473900e+00,1.134300e+01
-1.242500e+00,1.930200e+00,-2.555900e-01,-1.441800e+00,1.030000e+01
-1.261300e+00,1.952600e+00,-2.568100e-01,-1.441800e+00,1.093500e+01
-1.261600e+00,1.978500e+00,-2.582300e-01,-1.441800e+00,1.093000e+01
-1.261300e+00,2.017200e+00,-2.603400e-01,-1.441800e+00,1.019500e+01
-1.019600e+00,3.348700e+00,-3.331800e-01,-1.441800e+00,1.013300e+01
-2.861500e+00,2.756500e+00,-3.007800e-01,-1.441800e+00,1.073600e+01
-2.855300e+00,2.812900e+00,-3.038700e-01,-1.441800e+00,1.055500e+01
-1.243100e+00,1.979600e+00,-2.582900e-01,-1.409800e+00,1.030400e+01
-1.224500e+00,2.019400e+00,-2.604600e-01,-1.409800e+00,1.067100e+01
-1.242500e+00,2.042600e+00,-2.617300e-01,-1.409800e+00,1.035400e+01
-2.428300e-01,3.060800e+00,-3.174300e-01,-1.313700e+00,1.005900e+01
-3.361400e-01,3.015300e+00,-3.149400e-01,-1.281600e+00,1.040000e+01
-3.399600e-01,3.073500e+00,-3.181300e-01,-1.281600e+00,1.062700e+01
-1.356600e+00,3.705700e+00,-3.527100e-01,-1.089400e+00,1.097800e+01
-1.399700e+00,3.725700e+00,-3.538000e-01,-1.089400e+00,1.129400e+01
-1.443300e+00,3.746300e+00,-3.549300e-01,-1.089400e+00,1.071500e+01
-1.252900e+00,3.703200e+00,-3.525700e-01,-1.057400e+00,1.107400e+01
-1.325700e+00,3.716100e+00,-3.532800e-01,-1.057400e+00,1.233300e+01
-1.368600e+00,3.735100e+00,-3.543200e-01,-1.057400e+00,1.259000e+01
-1.411900e+00,3.754400e+00,-3.553700e-01,-1.057400e+00,1.188900e+01
-1.455900e+00,3.771600e+00,-3.563100e-01,-1.057400e+00,1.017100e+01
-1.283400e+00,3.691500e+00,-3.519300e-01,-1.025300e+00,1.074500e+01
-1.325700e+00,3.715100e+00,-3.532200e-01,-1.025300e+00,1.190900e+01
-1.368600e+00,3.731400e+00,-3.541100e-01,-1.025300e+00,1.212200e+01
-1.411900e+00,3.747700e+00,-3.550100e-01,-1.025300e+00,1.138000e+01
4.092600e-01,7.049500e-01,-1.885600e-01,-7.689800e-01,9.620300e+00
3.890700e-01,8.938700e-01,-1.989000e-01,-7.689800e-01,1.003200e+01
6.646300e-01,7.450000e-01,-1.907500e-01,-6.087800e-01,9.756500e+00
7.366600e-01,7.093600e-01,-1.888000e-01,-6.087800e-01,1.018600e+01
3.806100e-01,8.998800e-01,-1.992200e-01,-6.087800e-01,1.004500e+01
4.911100e-01,5.085300e-01,-1.778200e-01,-4.485700e-01,1.052600e+01
5.249400e-01,5.191500e-01,-1.784000e-01,-4.485700e-01,1.091600e+01
5.525000e-01,5.089600e-01,-1.778400e-01,-4.485700e-01,1.038600e+01
4.201700e-01,3.379200e-01,-1.684800e-01,-2.883700e-01,1.021900e+01
4.581000e-01,4.298900e-01,-1.735200e-01,-2.883700e-01,1.117800e+01
4.911100e-01,4.769100e-01,-1.760900e-01,-2.883700e-01,1.211700e+01
5.047500e-01,4.802200e-01,-1.762700e-01,-2.883700e-01,1.230900e+01
5.107500e-01,4.224500e-01,-1.731100e-01,-2.883700e-01,1.159100e+01
0,0,-1.500000e-01,-1.602100e-01,1.004500e+01
2.728400e-04,3.486700e-02,-1.519100e-01,-1.602100e-01,9.609500e+00
4.201700e-01,4.849800e-01,-1.765300e-01,-1.602100e-01,1.056900e+01
4.392700e-01,4.784700e-01,-1.761700e-01,-1.602100e-01,1.147200e+01
4.649200e-01,4.670700e-01,-1.755500e-01,-1.602100e-01,1.159300e+01
4.979300e-01,4.415000e-01,-1.741500e-01,-1.602100e-01,1.116400e+01
5.320300e-01,4.027600e-01,-1.720300e-01,-1.602100e-01,1.039600e+01
0,0,-1.500000e-01,-1.281600e-01,9.720400e+00
4.038000e-01,4.729900e-01,-1.758700e-01,-1.281600e-01,9.420200e+00
3.953400e-01,4.053100e-01,-1.721700e-01,-1.281600e-01,1.054000e+01
4.141700e-01,4.611700e-01,-1.752300e-01,-1.281600e-01,1.203100e+01
4.329900e-01,5.094300e-01,-1.778700e-01,-1.281600e-01,1.259900e+01
4.649200e-01,5.338500e-01,-1.792000e-01,-1.281600e-01,1.241300e+01
4.979300e-01,5.359600e-01,-1.793200e-01,-1.281600e-01,1.171100e+01
5.462200e-01,5.347400e-01,-1.792500e-01,-1.281600e-01,1.082800e+01
5.967000e-01,5.887100e-01,-1.822000e-01,-1.281600e-01,1.024100e+01
6.188000e-01,6.469000e-01,-1.853900e-01,-1.281600e-01,1.018000e+01
6.250700e-01,6.840600e-01,-1.874200e-01,-1.281600e-01,1.030100e+01
6.220700e-01,6.785600e-01,-1.871200e-01,-1.281600e-01,1.026000e+01
0,0,-1.500000e-01,-9.612300e-02,9.706100e+00
3.896100e-01,3.668500e-01,-1.700700e-01,-9.612300e-02,1.057100e+01
4.081700e-01,4.600800e-01,-1.751700e-01,-9.612300e-02,1.208500e+01
4.267200e-01,5.220600e-01,-1.785600e-01,-9.612300e-02,1.248900e+01
4.452700e-01,5.795100e-01,-1.817000e-01,-9.612300e-02,1.179200e+01
6.569900e-01,6.985300e-01,-1.882100e-01,-9.612300e-02,9.832500e+00
6.250700e-01,7.359700e-01,-1.902600e-01,-9.612300e-02,1.042500e+01
6.138900e-01,7.536600e-01,-1.912300e-01,-9.612300e-02,1.062000e+01
6.174300e-01,7.269900e-01,-1.897700e-01,-9.612300e-02,1.005200e+01
0,0,-1.500000e-01,-6.408200e-02,9.831900e+00
4.201700e-01,2.183000e-01,-1.619400e-01,-6.408200e-02,9.443900e+00
4.068000e-01,2.890000e-01,-1.658100e-01,-6.408200e-02,1.015400e+01
4.141700e-01,4.500300e-01,-1.746200e-01,-6.408200e-02,1.153300e+01
4.267200e-01,5.169400e-01,-1.782800e-01,-6.408200e-02,1.176000e+01
4.452700e-01,5.431900e-01,-1.797100e-01,-6.408200e-02,1.051100e+01
5.047500e-01,3.886600e-01,-1.712600e-01,-6.408200e-02,1.040200e+01
4.894700e-01,5.481700e-01,-1.799900e-01,-6.408200e-02,1.068400e+01
4.862000e-01,6.134000e-01,-1.835500e-01,-6.408200e-02,1.039600e+01
6.057000e-01,7.609200e-01,-1.916200e-01,-6.408200e-02,1.046600e+01
6.005200e-01,7.777900e-01,-1.925500e-01,-6.408200e-02,1.014500e+01
-8.307900e-01,8.919300e-01,-1.987900e-01,-6.408200e-02,9.966000e+00
-8.545300e-01,8.624900e-01,-1.971800e-01,-6.408200e-02,1.010100e+01
0,0,-1.500000e-01,-3.204100e-02,1.577200e+01
-4.092600e-02,1.450700e-02,-1.507900e-01,-3.204100e-02,1.518000e+01
-7.312100e-02,6.272400e-02,-1.534300e-01,-3.204100e-02,1.433800e+01
-1.091400e-02,1.327900e-01,-1.572600e-01,-3.204100e-02,1.352400e+01
-4.911100e-03,1.312800e-01,-1.571800e-01,-3.204100e-02,1.256400e+01
1.145900e-02,1.718600e-01,-1.594000e-01,-3.204100e-02,1.201700e+01
4.141700e-01,4.824700e-01,-1.763900e-01,-3.204100e-02,1.180800e+01
4.329900e-01,4.926300e-01,-1.769500e-01,-3.204100e-02,1.241300e+01
4.190800e-01,4.084100e-01,-1.723400e-01,-3.204100e-02,1.224700e+01
5.661400e-01,6.391900e-01,-1.849600e-01,-3.204100e-02,1.324300e+01
5.533200e-01,7.189100e-01,-1.893300e-01,-3.204100e-02,1.498000e+01
5.672300e-01,7.367900e-01,-1.903000e-01,-3.204100e-02,1.568700e+01
5.806000e-01,7.467700e-01,-1.908500e-01,-3.204100e-02,1.550100e+01
5.934200e-01,7.501400e-01,-1.910300e-01,-3.204100e-02,1.440300e+01
-7.235700e-01,6.500600e-01,-1.855600e-01,-3.204100e-02,1.127600e+01
-9.740300e-01,4.916500e-01,-1.768900e-01,-3.204100e-02,1.227900e+01
-9.331100e-01,4.897900e-01,-1.767900e-01,-3.204100e-02,1.305600e+01
-9.489300e-01,2.207900e-01,-1.620800e-01,-3.204100e-02,1.232500e+01
-1.005700e+00,7.788300e-01,-1.926000e-01,-3.204100e-02,1.141700e+01
-1.021500e+00,7.834900e-01,-1.928600e-01,-3.204100e-02,1.143200e+01
-1.058600e+00,7.968800e-01,-1.935900e-01,-3.204100e-02,1.025700e+01
