0,0,-1.500000e-01,0,1.677900e+01
-4.092600e-02,2.348200e-02,-1.501900e-01,0,1.617800e+01
-7.312100e-02,6.567100e-02,-1.505400e-01,0,1.531400e+01
-1.091400e-02,1.358100e-01,-1.511100e-01,0,1.450700e+01
-4.911100e-03,1.387600e-01,-1.511300e-01,0,1.363700e+01
9.549300e-03,1.810200e-01,-1.514800e-01,0,1.301400e+01
5.456800e-01,6.641000e-01,-1.554200e-01,0,1.420900e+01
5.533200e-01,7.195600e-01,-1.558800e-01,0,1.590700e+01
5.672300e-01,7.411500e-01,-1.560500e-01,0,1.664200e+01
5.806000e-01,7.584600e-01,-1.562000e-01,0,1.651400e+01
6.092500e-01,7.696200e-01,-1.562900e-01,0,1.538900e+01
4.829200e-01,4.942500e-01,-1.540400e-01,0,1.296700e+01
5.582300e-01,7.799100e-01,-1.563700e-01,0,1.246500e+01
-7.792300e-01,7.638700e-01,-1.562400e-01,0,1.171800e+01
-9.644800e-01,5.986000e-01,-1.548900e-01,0,1.319100e+01
-9.429300e-01,5.052100e-01,-1.541300e-01,0,1.372200e+01
-9.590300e-01,2.571500e-01,-1.521000e-01,0,1.292600e+01
-1.036800e+00,8.078700e-01,-1.566000e-01,0,1.184000e+01
-1.053400e+00,7.813500e-01,-1.563800e-01,0,1.157600e+01
0,0,-1.500000e-01,3.204100e-02,1.575800e+01
-4.092600e-02,2.719000e-02,-1.502200e-01,3.204100e-02,1.516100e+01
-7.312100e-02,6.719600e-02,-1.505500e-01,3.204100e-02,1.430400e+01
-1.091400e-02,1.362900e-01,-1.511100e-01,3.204100e-02,1.349100e+01
-4.911100e-03,1.424900e-01,-1.511600e-01,3.204100e-02,1.261100e+01
7.639500e-03,1.889500e-01,-1.515400e-01,3.204100e-02,1.195700e+01
5.525000e-01,6.544600e-01,-1.553500e-01,3.204100e-02,1.318500e+01
5.533200e-01,7.198600e-01,-1.558800e-01,3.204100e-02,1.491400e+01
5.525000e-01,7.514200e-01,-1.561400e-01,3.204100e-02,1.570700e+01
5.653200e-01,7.562800e-01,-1.561800e-01,3.204100e-02,1.566100e+01
5.696900e-01,7.360000e-01,-1.560100e-01,3.204100e-02,1.467900e+01
5.238500e-01,7.630900e-01,-1.562300e-01,3.204100e-02,1.311200e+01
5.582300e-01,8.613700e-01,-1.570400e-01,3.204100e-02,1.213300e+01
5.762300e-01,9.010400e-01,-1.573600e-01,3.204100e-02,1.098800e+01
5.942400e-01,9.280600e-01,-1.575800e-01,3.204100e-02,1.062000e+01
-7.328400e-01,6.484600e-01,-1.553000e-01,3.204100e-02,1.098300e+01
-9.740300e-01,6.521200e-01,-1.553300e-01,3.204100e-02,1.221100e+01
-9.527500e-01,6.413300e-01,-1.552400e-01,3.204100e-02,1.282900e+01
-9.691200e-01,5.508800e-01,-1.545000e-01,3.204100e-02,1.199300e+01
-1.032100e+00,8.342800e-01,-1.568100e-01,3.204100e-02,1.054600e+01
0,0,-1.500000e-01,6.408200e-02,1.034300e+01
4.141700e-01,4.869700e-01,-1.539800e-01,6.408200e-02,9.392200e+00
4.204400e-01,5.476900e-01,-1.544700e-01,6.408200e-02,9.856300e+00
4.714600e-01,4.998700e-01,-1.540800e-01,6.408200e-02,1.158700e+01
4.812900e-01,5.350400e-01,-1.543700e-01,6.408200e-02,1.274100e+01
4.905600e-01,6.036600e-01,-1.549300e-01,6.408200e-02,1.269400e+01
5.320300e-01,7.550500e-01,-1.561700e-01,6.408200e-02,1.199700e+01
5.413100e-01,8.951700e-01,-1.573100e-01,6.408200e-02,1.076600e+01
-9.527500e-01,8.161400e-01,-1.566700e-01,6.408200e-02,1.040400e+01
-9.691200e-01,8.528800e-01,-1.569700e-01,6.408200e-02,1.048100e+01
6.875500e-01,6.224200e-01,-1.550800e-01,9.612300e-02,1.080100e+01
7.200200e-01,6.582500e-01,-1.553800e-01,9.612300e-02,1.132700e+01
7.448500e-01,7.179800e-01,-1.558600e-01,9.612300e-02,1.115900e+01
7.443000e-01,7.838700e-01,-1.564000e-01,9.612300e-02,1.010100e+01
-9.740300e-01,6.884500e-01,-1.556200e-01,9.612300e-02,9.912200e+00
-9.920400e-01,7.294400e-01,-1.559600e-01,9.612300e-02,1.036000e+01
-1.039800e+00,7.345100e-01,-1.560000e-01,9.612300e-02,9.979300e+00
0,0,-1.500000e-01,1.281600e-01,9.955100e+00
4.051600e-01,6.055800e-01,-1.549500e-01,1.281600e-01,1.020400e+01
4.430900e-01,6.586200e-01,-1.553800e-01,1.281600e-01,1.113300e+01
5.143000e-01,7.549000e-01,-1.561700e-01,1.281600e-01,1.152100e+01
5.729600e-01,8.136400e-01,-1.566500e-01,1.281600e-01,1.139600e+01
6.005200e-01,8.535100e-01,-1.569700e-01,1.281600e-01,1.035000e+01
0,0,-1.500000e-01,1.602100e-01,9.743700e+00
4.812900e-01,6.511500e-01,-1.553200e-01,1.602100e-01,1.100300e+01
5.301200e-01,7.262800e-01,-1.559300e-01,1.602100e-01,1.175300e+01
5.647800e-01,7.719100e-01,-1.563100e-01,1.602100e-01,1.166800e+01
6.005200e-01,8.029800e-01,-1.565600e-01,1.602100e-01,1.063000e+01
-1.491600e+00,2.237400e+00,-1.682800e-01,-1.121400e+00,9.979600e+00
-3.132200e+00,3.705800e+00,-1.802700e-01,-1.121400e+00,1.050700e+01
-3.154600e+00,3.688600e+00,-1.801300e-01,-1.121400e+00,1.070000e+01
-3.138200e+00,3.563700e+00,-1.791100e-01,-1.121400e+00,9.891500e+00
-2.064300e+00,6.448800e+00,-2.026800e-01,-1.121400e+00,1.082300e+01
-2.021700e+00,6.501500e+00,-2.031100e-01,-1.121400e+00,1.104700e+01
-1.871700e+00,6.582200e+00,-2.037600e-01,-1.121400e+00,1.042600e+01
-3.588400e+00,8.867100e+00,-2.224300e-01,-1.121400e+00,1.011800e+01
-3.451400e+00,8.947000e+00,-2.230800e-01,-1.121400e+00,1.036700e+01
-3.071900e+00,3.757400e+00,-1.806900e-01,-1.089400e+00,1.008800e+01
-3.170400e+00,3.719600e+00,-1.803800e-01,-1.089400e+00,1.079000e+01
-3.231500e+00,3.715100e+00,-1.803500e-01,-1.089400e+00,1.072200e+01
-2.064300e+00,6.429400e+00,-2.025200e-01,-1.089400e+00,1.070300e+01
-2.181300e+00,6.444100e+00,-2.026400e-01,-1.089400e+00,1.068100e+01
-2.192500e+00,6.463800e+00,-2.028000e-01,-1.089400e+00,9.961400e+00
-3.246800e+00,3.649200e+00,-1.798100e-01,-1.057400e+00,1.024100e+01
-3.308400e+00,3.645400e+00,-1.797800e-01,-1.057400e+00,1.012300e+01
-1.958400e+00,6.485900e+00,-2.029800e-01,-1.057400e+00,1.042300e+01
-1.968500e+00,6.509800e+00,-2.031700e-01,-1.057400e+00,1.032800e+01
-1.852600e+00,6.510700e+00,-2.031800e-01,-1.025300e+00,1.056900e+01
-1.968500e+00,6.510800e+00,-2.031800e-01,-1.025300e+00,1.071200e+01
6.409000e-01,2.969700e+00,-1.742600e-01,-9.932700e-01,1.001900e+01
-3.132200e+00,3.752900e+00,-1.806500e-01,-9.932700e-01,1.038200e+01
-3.154600e+00,3.779900e+00,-1.808800e-01,-9.932700e-01,1.080400e+01
-3.176900e+00,3.805000e+00,-1.810800e-01,-9.932700e-01,1.033300e+01
-9.601200e-01,2.204400e+00,-1.680100e-01,-9.612300e-01,1.107600e+01
-9.931300e-01,2.228400e+00,-1.682000e-01,-9.612300e-01,1.118200e+01
-1.007300e+00,2.260300e+00,-1.684600e-01,-9.612300e-01,1.035400e+01
-2.156800e+00,2.410400e+00,-1.696900e-01,-9.612300e-01,1.021600e+01
-2.103000e+00,2.503600e+00,-1.704500e-01,-9.612300e-01,9.997000e+00
-3.170400e+00,3.717000e+00,-1.803600e-01,-9.612300e-01,1.041100e+01
-3.231500e+00,3.712000e+00,-1.803200e-01,-9.612300e-01,1.086000e+01
-3.254400e+00,3.739100e+00,-1.805400e-01,-9.612300e-01,1.055500e+01
-2.170200e+00,6.413600e+00,-2.023900e-01,-9.612300e-01,1.017400e+01
-2.181300e+00,6.450800e+00,-2.026900e-01,-9.612300e-01,1.026700e+01
-9.462000e-01,2.168000e+00,-1.677100e-01,-9.291900e-01,1.116800e+01
-9.601200e-01,2.197000e+00,-1.679500e-01,-9.291900e-01,1.212200e+01
-9.740300e-01,2.228300e+00,-1.682000e-01,-9.291900e-01,1.216500e+01
-1.007300e+00,2.243700e+00,-1.683300e-01,-9.291900e-01,1.135900e+01
-2.108500e+00,2.389000e+00,-1.695100e-01,-9.291900e-01,1.028200e+01
-2.080700e+00,2.483000e+00,-1.702800e-01,-9.291900e-01,1.116900e+01
-2.077400e+00,2.535600e+00,-1.707100e-01,-9.291900e-01,1.109700e+01
-3.077600e+00,3.843800e+00,-1.814000e-01,-9.291900e-01,1.032000e+01
-3.176900e+00,3.807800e+00,-1.811000e-01,-9.291900e-01,1.050900e+01
-9.091000e-01,2.183800e+00,-1.678400e-01,-8.971500e-01,1.143300e+01
-9.412900e-01,2.206800e+00,-1.680300e-01,-8.971500e-01,1.244700e+01
-9.740300e-01,2.227500e+00,-1.681900e-01,-8.971500e-01,1.255000e+01
-1.046100e+00,2.222900e+00,-1.681600e-01,-8.971500e-01,1.189700e+01
-1.198300e+00,2.160300e+00,-1.676500e-01,-8.971500e-01,1.097000e+01
-2.080700e+00,2.481100e+00,-1.702700e-01,-8.971500e-01,1.076600e+01
-2.077400e+00,2.531300e+00,-1.706800e-01,-8.971500e-01,1.098100e+01
-1.984900e+00,2.744000e+00,-1.724100e-01,-8.971500e-01,1.019900e+01
-1.951900e+00,2.788100e+00,-1.727700e-01,-8.971500e-01,1.029000e+01
-2.127300e+00,3.306100e+00,-1.770000e-01,-8.971500e-01,1.021000e+01
-8.709000e-01,3.788500e+00,-1.809500e-01,-8.971500e-01,1.029900e+01
-8.471600e-01,3.855500e+00,-1.814900e-01,-8.971500e-01,1.008500e+01
-3.060700e+00,3.879400e+00,-1.816900e-01,-8.971500e-01,1.062400e+01
-3.199300e+00,3.832100e+00,-1.813000e-01,-8.971500e-01,1.034200e+01
-5.350400e-01,1.732100e+00,-1.641500e-01,-8.651100e-01,1.051300e+01
-5.598600e-01,1.756800e+00,-1.643500e-01,-8.651100e-01,1.070700e+01
-5.852400e-01,1.785700e+00,-1.645900e-01,-8.651100e-01,1.001200e+01
-8.905400e-01,2.198300e+00,-1.679600e-01,-8.651100e-01,1.061600e+01
-9.412900e-01,2.212300e+00,-1.680700e-01,-8.651100e-01,1.179600e+01
-9.931300e-01,2.224900e+00,-1.681700e-01,-8.651100e-01,1.193000e+01
-1.084800e+00,2.217000e+00,-1.681100e-01,-8.651100e-01,1.114500e+01
-1.472200e+00,2.206600e+00,-1.680200e-01,-8.651100e-01,1.121600e+01
-1.512600e+00,2.218800e+00,-1.681200e-01,-8.651100e-01,1.096400e+01
-8.940900e-01,3.802100e+00,-1.810600e-01,-8.651100e-01,1.063300e+01
-8.398000e-01,3.860900e+00,-1.815400e-01,-8.651100e-01,1.098000e+01
-7.530300e-01,3.929200e+00,-1.820900e-01,-8.651100e-01,1.055100e+01
-3.099400e+00,3.867300e+00,-1.815900e-01,-8.651100e-01,1.097400e+01
-3.160300e+00,3.866700e+00,-1.815800e-01,-8.651100e-01,1.073400e+01
-5.385800e-01,1.550300e+00,-1.626600e-01,-8.330700e-01,9.941600e+00
-5.061100e-01,1.738700e+00,-1.642000e-01,-8.330700e-01,1.067600e+01
-5.304000e-01,1.769900e+00,-1.644600e-01,-8.330700e-01,1.086700e+01
-1.129600e+00,2.128500e+00,-1.673900e-01,-8.330700e-01,1.048900e+01
-1.069500e+00,2.193800e+00,-1.679200e-01,-8.330700e-01,1.121100e+01
-1.026700e+00,2.243600e+00,-1.683300e-01,-8.330700e-01,1.068900e+01
-1.391500e+00,2.218900e+00,-1.681200e-01,-8.330700e-01,1.083600e+01
-1.451500e+00,2.221600e+00,-1.681500e-01,-8.330700e-01,1.144500e+01
-1.491600e+00,2.236500e+00,-1.682700e-01,-8.330700e-01,1.098700e+01
-1.932000e+00,2.757900e+00,-1.725300e-01,-8.330700e-01,1.032700e+01
-7.022900e-01,3.349500e+00,-1.773600e-01,-8.330700e-01,1.071100e+01
-7.366600e-01,3.393200e+00,-1.777200e-01,-8.330700e-01,1.065800e+01
-1.109900e+00,3.769700e+00,-1.807900e-01,-8.330700e-01,1.090600e+01
-9.331100e-01,3.864700e+00,-1.815700e-01,-8.330700e-01,1.109400e+01
-7.844100e-01,3.938800e+00,-1.821700e-01,-8.330700e-01,1.040700e+01
-1.637000e+00,4.043800e+00,-1.830300e-01,-8.330700e-01,1.036400e+01
-1.615700e+00,4.088100e+00,-1.833900e-01,-8.330700e-01,1.026600e+01
-3.039100e+00,3.863800e+00,-1.815600e-01,-8.330700e-01,1.073900e+01
-3.022000e+00,3.926900e+00,-1.820800e-01,-8.330700e-01,1.139000e+01
-3.043200e+00,3.956600e+00,-1.823200e-01,-8.330700e-01,1.099600e+01
-5.773300e-01,1.488900e+00,-1.621600e-01,-8.010300e-01,9.926900e+00
-5.257600e-01,1.537300e+00,-1.625600e-01,-8.010300e-01,1.060800e+01
-5.369500e-01,1.565100e+00,-1.627800e-01,-8.010300e-01,1.040400e+01
-3.546900e-01,2.153400e+00,-1.675900e-01,-8.010300e-01,1.056600e+01
-3.421400e-01,2.244000e+00,-1.683300e-01,-8.010300e-01,1.111800e+01
-3.656000e-01,2.278000e+00,-1.686100e-01,-8.010300e-01,1.087000e+01
-1.107700e+00,2.164400e+00,-1.676800e-01,-8.010300e-01,1.117100e+01
-1.162300e+00,2.174300e+00,-1.677600e-01,-8.010300e-01,1.110700e+01
-1.257200e+00,2.166700e+00,-1.677000e-01,-8.010300e-01,1.089200e+01
-1.294600e+00,2.195700e+00,-1.679400e-01,-8.010300e-01,1.036900e+01
-1.493000e+00,2.181000e+00,-1.678200e-01,-8.010300e-01,1.069100e+01
-1.314000e+00,3.662000e+00,-1.799100e-01,-8.010300e-01,1.063900e+01
-1.356600e+00,3.704800e+00,-1.802600e-01,-8.010300e-01,1.123600e+01
-1.430800e+00,3.711000e+00,-1.803100e-01,-8.010300e-01,1.099700e+01
-2.147800e+00,3.689200e+00,-1.801300e-01,-8.010300e-01,1.000600e+01
-1.488600e+00,4.024600e+00,-1.828700e-01,-8.010300e-01,1.021700e+01
-1.637000e+00,4.042000e+00,-1.830200e-01,-8.010300e-01,1.095900e+01
-1.684500e+00,4.064400e+00,-1.832000e-01,-8.010300e-01,1.060000e+01
-3.060700e+00,3.901700e+00,-1.818700e-01,-8.010300e-01,11
-3.043200e+00,3.959000e+00,-1.823400e-01,-8.010300e-01,1.080600e+01
-5.001100e-01,1.509400e+00,-1.623300e-01,-7.689800e-01,1.084400e+01
-5.369500e-01,1.541900e+00,-1.625900e-01,-7.689800e-01,1.103700e+01
-6.016100e-01,1.550300e+00,-1.626600e-01,-7.689800e-01,1.031800e+01
-1.764200e+00,1.112100e+00,-1.590800e-01,-7.689800e-01,1.033500e+01
-1.843800e+00,1.101000e+00,-1.589900e-01,-7.689800e-01,1.113300e+01
-1.925100e+00,1.037200e+00,-1.584700e-01,-7.689800e-01,1.078400e+01
-2.021700e+00,1.031800e+00,-1.584300e-01,-7.689800e-01,1.026600e+01
-3.241300e-01,2.252500e+00,-1.684000e-01,-7.689800e-01,1.091800e+01
-3.107600e-01,2.307700e+00,-1.688500e-01,-7.689800e-01,1.083000e+01
-9.977700e-01,2.176600e+00,-1.677800e-01,-7.689800e-01,1.070800e+01
-1.050400e+00,2.191700e+00,-1.679000e-01,-7.689800e-01,1.114200e+01
-1.142900e+00,2.193100e+00,-1.679100e-01,-7.689800e-01,1.108100e+01
-1.237600e+00,2.182700e+00,-1.678300e-01,-7.689800e-01,1.094800e+01
-1.294600e+00,2.165000e+00,-1.676800e-01,-7.689800e-01,1.056900e+01
-1.791500e+00,2.894400e+00,-1.736400e-01,-7.689800e-01,1.047600e+01
-1.809700e+00,2.908500e+00,-1.737600e-01,-7.689800e-01,1.045100e+01
-1.314000e+00,3.659500e+00,-1.798900e-01,-7.689800e-01,1.065000e+01
-1.449000e+00,3.668000e+00,-1.799600e-01,-7.689800e-01,1.158100e+01
-1.555200e+00,3.664900e+00,-1.799400e-01,-7.689800e-01,1.158900e+01
-1.694300e+00,3.641300e+00,-1.797400e-01,-7.689800e-01,1.083400e+01
-1.759300e+00,3.957000e+00,-1.823200e-01,-7.689800e-01,1.080700e+01
-1.739300e+00,4.002600e+00,-1.826900e-01,-7.689800e-01,1.065100e+01
-3.099400e+00,3.870500e+00,-1.816100e-01,-7.689800e-01,1.043200e+01
-3.082300e+00,3.922900e+00,-1.820400e-01,-7.689800e-01,1.026800e+01
-7.857700e-01,1.085700e+00,-1.588700e-01,-7.369400e-01,1.021400e+01
-5.001100e-01,1.502600e+00,-1.622700e-01,-7.369400e-01,1.038300e+01
-1.860800e+00,1.025000e+00,-1.583700e-01,-7.369400e-01,1.089200e+01
-1.908000e+00,1.035100e+00,-1.584600e-01,-7.369400e-01,1.106200e+01
-1.218000e+00,2.157300e+00,-1.676200e-01,-7.369400e-01,1.059400e+01
-1.932000e+00,2.781000e+00,-1.727200e-01,-7.369400e-01,1.072900e+01
-1.978600e+00,2.792000e+00,-1.728100e-01,-7.369400e-01,1.069300e+01
-1.619600e+00,3.553200e+00,-1.790200e-01,-7.369400e-01,1.061500e+01
-1.634000e+00,3.591400e+00,-1.793400e-01,-7.369400e-01,1.153400e+01
-1.679600e+00,3.608900e+00,-1.794800e-01,-7.369400e-01,1.144400e+01
-2.130300e+00,3.689700e+00,-1.801400e-01,-7.369400e-01,1.029000e+01
-2.181300e+00,3.700400e+00,-1.802300e-01,-7.369400e-01,1.081300e+01
-2.334400e+00,3.644400e+00,-1.797700e-01,-7.369400e-01,1.023100e+01
-3.969800e+00,3.407600e+00,-1.778300e-01,-7.369400e-01,1.014500e+01
-4.360000e-01,1.532700e+00,-1.625200e-01,-7.049000e-01,1.049100e+01
-4.583700e-01,1.563100e+00,-1.627700e-01,-7.049000e-01,1.110800e+01
-4.946600e-01,1.593100e+00,-1.630100e-01,-7.049000e-01,1.074900e+01
4.501800e-02,1.893400e+00,-1.654700e-01,-7.049000e-01,1.105100e+01
-1.856400e+00,1.112200e+00,-1.590800e-01,-7.049000e-01,1.074300e+01
-1.990600e+00,1.003400e+00,-1.582000e-01,-7.049000e-01,1.058700e+01
-1.700100e+00,1.475400e+00,-1.620500e-01,-7.049000e-01,1.053000e+01
-1.762500e+00,1.434100e+00,-1.617100e-01,-7.049000e-01,1.028000e+01
-1.964400e+00,2.693800e+00,-1.720000e-01,-7.049000e-01,1.027700e+01
-1.984900e+00,2.745100e+00,-1.724200e-01,-7.049000e-01,1.052700e+01
-1.741800e+00,3.438800e+00,-1.780900e-01,-7.049000e-01,1.063000e+01
-1.695700e+00,3.557200e+00,-1.790600e-01,-7.049000e-01,1.140100e+01
-1.679600e+00,3.609500e+00,-1.794800e-01,-7.049000e-01,1.137800e+01
-1.600200e+00,3.680000e+00,-1.800600e-01,-7.049000e-01,1.046900e+01
-2.097000e+00,3.687000e+00,-1.801200e-01,-7.049000e-01,1.026000e+01
-2.080700e+00,3.747500e+00,-1.806100e-01,-7.049000e-01,1.106700e+01
-2.131400e+00,3.745800e+00,-1.806000e-01,-7.049000e-01,1.089600e+01
-4.976600e-01,1.560900e+00,-1.627500e-01,-6.728600e-01,1.047300e+01
-5.080200e-01,1.574200e+00,-1.628600e-01,-6.728600e-01,1.027600e+01
-1.602700e+00,1.604500e+00,-1.631100e-01,-6.728600e-01,1.084800e+01
-1.663500e+00,1.614000e+00,-1.631800e-01,-6.728600e-01,1.130900e+01
-1.725400e+00,1.612000e+00,-1.631700e-01,-6.728600e-01,1.052100e+01
-1.252900e+00,3.662700e+00,-1.799200e-01,-6.728600e-01,1.054200e+01
-1.418200e+00,3.675200e+00,-1.800200e-01,-6.728600e-01,1.136000e+01
-1.493000e+00,3.689400e+00,-1.801400e-01,-6.728600e-01,1.131200e+01
-2.013500e+00,3.776900e+00,-1.808500e-01,-6.728600e-01,1.025700e+01
7.202900e-02,7.100800e-01,-1.558000e-01,-6.408200e-01,9.698500e+00
6.902800e-02,7.251800e-01,-1.559200e-01,-6.408200e-01,9.767300e+00
-1.833500e+00,1.104300e+00,-1.590200e-01,-6.408200e-01,1.026900e+01
-1.791200e+00,1.293100e+00,-1.605600e-01,-6.408200e-01,1.038600e+01
-1.656700e+00,1.577200e+00,-1.628800e-01,-6.408200e-01,1.170500e+01
-1.663500e+00,1.619100e+00,-1.632200e-01,-6.408200e-01,1.214900e+01
-1.706900e+00,1.624400e+00,-1.632700e-01,-6.408200e-01,1.148700e+01
-1.995800e+00,2.628100e+00,-1.714700e-01,-6.408200e-01,1.037700e+01
-2.016800e+00,2.654500e+00,-1.716800e-01,-6.408200e-01,1.053700e+01
-2.064300e+00,2.658700e+00,-1.717200e-01,-6.408200e-01,1.009800e+01
-1.283400e+00,3.664600e+00,-1.799300e-01,-6.408200e-01,1.041500e+01
-1.387400e+00,3.694300e+00,-1.801800e-01,-6.408200e-01,1.109500e+01
-1.493000e+00,3.687400e+00,-1.801200e-01,-6.408200e-01,1.088800e+01
-5.396700e-01,1.459900e+00,-1.619200e-01,-6.087800e-01,1.003100e+01
-1.667000e+00,1.427300e+00,-1.616600e-01,-6.087800e-01,1.052600e+01
-1.674700e+00,1.546600e+00,-1.626300e-01,-6.087800e-01,1.196700e+01
-1.700100e+00,1.579400e+00,-1.629000e-01,-6.087800e-01,1.253000e+01
-1.725400e+00,1.607000e+00,-1.631300e-01,-6.087800e-01,1.208000e+01
-1.788500e+00,1.587800e+00,-1.629700e-01,-6.087800e-01,1.044000e+01
-1.912100e+00,2.752800e+00,-1.724900e-01,-6.087800e-01,1.043200e+01
-1.401300e+00,7.335100e+00,-2.099200e-01,-6.087800e-01,1.206400e+01
-1.407800e+00,7.373500e+00,-2.102300e-01,-6.087800e-01,1.269400e+01
-1.414400e+00,7.407600e+00,-2.105100e-01,-6.087800e-01,1.255100e+01
-1.420900e+00,7.433600e+00,-2.107200e-01,-6.087800e-01,1.192900e+01
-1.368000e+00,7.460400e+00,-2.109400e-01,-6.087800e-01,1.069900e+01
9.549300e-02,8.278600e-01,-1.567600e-01,-5.767400e-01,9.612000e+00
-1.674700e+00,1.559600e+00,-1.627400e-01,-5.767400e-01,1.067300e+01
-1.700100e+00,1.585900e+00,-1.629500e-01,-5.767400e-01,1.130000e+01
-1.725400e+00,1.613500e+00,-1.631800e-01,-5.767400e-01,1.104500e+01
-2.521000e+00,3.346600e+00,-1.773400e-01,-5.767400e-01,1.040000e+01
-1.278500e+00,7.325400e+00,-2.098400e-01,-5.767400e-01,1.131800e+01
-1.401300e+00,7.336000e+00,-2.099200e-01,-5.767400e-01,1.302700e+01
-1.407800e+00,7.371600e+00,-2.102100e-01,-5.767400e-01,1.356600e+01
-1.473300e+00,7.396300e+00,-2.104100e-01,-5.767400e-01,1.318600e+01
-1.539400e+00,7.413200e+00,-2.105500e-01,-5.767400e-01,1.225100e+01
-1.605900e+00,7.409700e+00,-2.105200e-01,-5.767400e-01,1.096500e+01
7.503100e-02,8.209200e-01,-1.567100e-01,-5.447000e-01,9.213700e+00
-3.806100e-01,1.475200e+00,-1.620500e-01,-5.447000e-01,1.043900e+01
-3.639700e-01,1.516700e+00,-1.623900e-01,-5.447000e-01,1.061500e+01
-3.334100e-01,1.559000e+00,-1.627300e-01,-5.447000e-01,1.029700e+01
-2.073600e+00,2.519200e+00,-1.705800e-01,-5.447000e-01,1.019700e+01
-2.147800e+00,2.554600e+00,-1.708700e-01,-5.447000e-01,1.069900e+01
-2.223100e+00,2.553800e+00,-1.708600e-01,-5.447000e-01,1.006800e+01
-1.278500e+00,7.321700e+00,-2.098100e-01,-5.447000e-01,1.086900e+01
-1.401300e+00,7.337900e+00,-2.099400e-01,-5.447000e-01,1.255600e+01
-1.407800e+00,7.370700e+00,-2.102100e-01,-5.447000e-01,1.309300e+01
-1.473300e+00,7.397400e+00,-2.104200e-01,-5.447000e-01,1.256200e+01
-1.776200e+00,7.327800e+00,-2.098600e-01,-5.447000e-01,1.092900e+01
-3.560500e-01,1.490500e+00,-1.621800e-01,-5.126600e-01,9.885800e+00
-3.263100e-01,1.524500e+00,-1.624500e-01,-5.126600e-01,1.004700e+01
-3.205800e-01,1.558500e+00,-1.627300e-01,-5.126600e-01,9.763500e+00
-1.532300e+00,9.975100e-01,-1.581500e-01,-5.126600e-01,1.071600e+01
-2.021700e+00,2.622900e+00,-1.714200e-01,-5.126600e-01,1.005700e+01
-2.043000e+00,2.658200e+00,-1.717100e-01,-5.126600e-01,9.910800e+00
-1.401300e+00,7.328100e+00,-2.098600e-01,-5.126600e-01,1.091100e+01
-1.407800e+00,7.350500e+00,-2.100400e-01,-5.126600e-01,1.155700e+01
-1.414400e+00,7.388600e+00,-2.103500e-01,-5.126600e-01,1.123000e+01
-1.184100e+00,7.479600e+00,-2.111000e-01,-5.126600e-01,1.011700e+01
-1.517500e+00,1.012700e+00,-1.582700e-01,-4.806200e-01,1.040600e+01
-1.545600e+00,1.069900e+00,-1.587400e-01,-4.806200e-01,1.022700e+01
-1.995800e+00,2.648600e+00,-1.716300e-01,-4.806200e-01,1.028800e+01
-2.016800e+00,2.677800e+00,-1.718700e-01,-4.806200e-01,1.084500e+01
-2.143700e+00,2.613800e+00,-1.713500e-01,-4.806200e-01,1.015800e+01
-1.944000e+00,2.646500e+00,-1.716200e-01,-4.485700e-01,9.883200e+00
-2.016800e+00,2.665600e+00,-1.717700e-01,-4.485700e-01,1.054600e+01
-2.090800e+00,2.634200e+00,-1.715200e-01,-4.485700e-01,1.001800e+01
8.703500e-01,1.006500e+01,-2.322200e-01,-4.485700e-01,1.045300e+01
8.733600e-01,1.011800e+01,-2.326500e-01,-4.485700e-01,1.142600e+01
8.763600e-01,1.016000e+01,-2.329900e-01,-4.485700e-01,1.142400e+01
9.593000e-01,1.013900e+01,-2.328200e-01,-4.485700e-01,1.046400e+01
2.455500e-01,4.389600e-01,-1.535900e-01,-4.165300e-01,9.481200e+00
-2.095400e+00,2.614700e+00,-1.713600e-01,-4.165300e-01,9.979500e+00
8.703500e-01,1.006200e+01,-2.321900e-01,-4.165300e-01,1.096500e+01
8.733600e-01,1.011200e+01,-2.326000e-01,-4.165300e-01,1.201700e+01
8.763600e-01,1.015600e+01,-2.329600e-01,-4.165300e-01,1.206800e+01
9.593000e-01,1.018700e+01,-2.332100e-01,-4.165300e-01,1.111500e+01
2.346400e-01,4.793500e-01,-1.539200e-01,-3.844900e-01,9.634600e+00
8.733600e-01,1.007000e+01,-2.322600e-01,-3.844900e-01,1.055100e+01
9.560300e-01,1.013000e+01,-2.327500e-01,-3.844900e-01,1.068100e+01
4.706500e-01,5.150400e-01,-1.542100e-01,-2.242900e-01,9.836800e+00
4.976600e-01,5.227000e-01,-1.542700e-01,-2.242900e-01,1.082500e+01
5.252100e-01,5.705700e-01,-1.546600e-01,-2.242900e-01,1.054400e+01
5.063900e-01,7.162100e-01,-1.558500e-01,-2.242900e-01,9.876800e+00
4.420000e-01,3.767200e-01,-1.530800e-01,-1.281600e-01,1.006200e+01
4.660100e-01,3.167600e-01,-1.525900e-01,-1.281600e-01,1.105300e+01
5.063900e-01,5.324800e-01,-1.543500e-01,-1.281600e-01,1.145200e+01
5.484000e-01,7.461100e-01,-1.560900e-01,-1.281600e-01,1.130300e+01
5.836000e-01,8.245800e-01,-1.567400e-01,-1.281600e-01,1.019200e+01
0,0,-1.500000e-01,-9.612300e-02,9.649000e+00
-3.301300e-02,1.055800e-02,-1.500900e-01,-9.612300e-02,9.340200e+00
5.604100e-01,7.041500e-01,-1.557500e-01,-9.612300e-02,9.791600e+00
5.451300e-01,6.766900e-01,-1.555300e-01,-9.612300e-02,1.069000e+01
6.092500e-01,7.675200e-01,-1.562700e-01,-9.612300e-02,1.126200e+01
6.057000e-01,8.522800e-01,-1.569600e-01,-9.612300e-02,1.157800e+01
6.089800e-01,8.704700e-01,-1.571100e-01,-9.612300e-02,1.053400e+01
0,0,-1.500000e-01,-6.408200e-02,1.047500e+01
-2.182700e-03,3.485300e-02,-1.502800e-01,-6.408200e-02,9.887800e+00
5.107500e-01,7.110300e-01,-1.558100e-01,-6.408200e-02,1.053900e+01
3.819700e-01,4.167000e-01,-1.534000e-01,-6.408200e-02,1.300800e+01
3.481400e-01,5.488300e-01,-1.544800e-01,-6.408200e-02,1.303200e+01
7.284800e-01,6.951600e-01,-1.556800e-01,-6.408200e-02,1.220500e+01
6.032500e-01,8.864000e-01,-1.572400e-01,-6.408200e-02,1.093200e+01
6.122500e-01,9.396700e-01,-1.576800e-01,-6.408200e-02,1.048200e+01
-8.212400e-01,8.188700e-01,-1.566900e-01,-6.408200e-02,1.028000e+01
-8.741700e-01,8.721900e-01,-1.571200e-01,-6.408200e-02,1.059800e+01
-9.287400e-01,6.875200e-01,-1.556200e-01,-6.408200e-02,1.036400e+01
-9.953100e-01,6.547600e-01,-1.553500e-01,-6.408200e-02,9.845800e+00
0,0,-1.500000e-01,-3.204100e-02,1.576600e+01
-4.092600e-02,1.779200e-02,-1.501500e-01,-3.204100e-02,1.515200e+01
-7.312100e-02,6.403200e-02,-1.505200e-01,-3.204100e-02,1.428400e+01
-1.091400e-02,1.364800e-01,-1.511100e-01,-3.204100e-02,1.347600e+01
-3.274100e-03,1.392100e-01,-1.511400e-01,-3.204100e-02,1.259500e+01
9.549300e-03,1.780100e-01,-1.514500e-01,-3.204100e-02,1.197100e+01
5.456800e-01,6.675500e-01,-1.554500e-01,-3.204100e-02,1.322700e+01
5.604100e-01,7.143600e-01,-1.558400e-01,-3.204100e-02,1.486200e+01
5.819600e-01,7.371500e-01,-1.560200e-01,-3.204100e-02,1.554800e+01
6.111600e-01,7.563600e-01,-1.561800e-01,-3.204100e-02,1.537700e+01
6.567200e-01,7.701000e-01,-1.562900e-01,-3.204100e-02,1.418700e+01
4.092600e-01,5.313900e-01,-1.543400e-01,-3.204100e-02,1.303100e+01
5.328500e-01,6.603200e-01,-1.553900e-01,-3.204100e-02,1.186700e+01
6.212500e-01,8.885100e-01,-1.572600e-01,-3.204100e-02,1.063000e+01
6.771800e-01,8.387700e-01,-1.568500e-01,-3.204100e-02,1.081400e+01
-9.262900e-01,3.843700e-01,-1.531400e-01,-3.204100e-02,1.223400e+01
-9.232800e-01,1.003600e-01,-1.508200e-01,-3.204100e-02,1.285300e+01
-1.016000e+00,8.221800e-01,-1.567200e-01,-3.204100e-02,1.114800e+01
-1.064100e+00,6.998500e-01,-1.557200e-01,-3.204100e-02,1.037200e+01
