0,0,-1.500000e-01,0,1.677800e+01
-4.092600e-02,2.118000e-02,-1.500200e-01,0,1.618800e+01
-7.312100e-02,6.468700e-02,-1.500700e-01,0,1.531900e+01
-1.091400e-02,1.339700e-01,-1.501400e-01,0,1.451900e+01
-4.911100e-03,1.345900e-01,-1.501400e-01,0,1.360000e+01
9.549300e-03,1.743500e-01,-1.501800e-01,0,1.305500e+01
5.456800e-01,6.679100e-01,-1.507000e-01,0,1.419400e+01
5.533200e-01,7.184900e-01,-1.507500e-01,0,1.586300e+01
5.598600e-01,7.407900e-01,-1.507800e-01,0,1.655000e+01
5.729600e-01,7.518500e-01,-1.507900e-01,0,1.631900e+01
5.934200e-01,7.549200e-01,-1.507900e-01,0,1.506100e+01
5.893300e-01,8.156900e-01,-1.508500e-01,0,1.250400e+01
-7.328400e-01,5.666700e-01,-1.505900e-01,0,1.203100e+01
-1.040900e+00,4.865000e-01,-1.505100e-01,0,1.287800e+01
-9.429300e-01,4.369000e-01,-1.504600e-01,0,1.334000e+01
-9.590300e-01,2.148800e-01,-1.502300e-01,0,1.271200e+01
-1.005700e+00,7.954500e-01,-1.508300e-01,0,1.216400e+01
-1.021500e+00,8.378200e-01,-1.508800e-01,0,1.166600e+01
-1.036800e+00,9.014900e-01,-1.509400e-01,0,1.005700e+01
0,0,-1.500000e-01,3.204100e-02,1.576100e+01
-4.092600e-02,2.281500e-02,-1.500200e-01,3.204100e-02,1.517300e+01
-7.312100e-02,6.593700e-02,-1.500700e-01,3.204100e-02,1.429300e+01
-1.091400e-02,1.356800e-01,-1.501400e-01,3.204100e-02,1.350000e+01
-4.911100e-03,1.383800e-01,-1.501400e-01,3.204100e-02,1.259700e+01
9.549300e-03,1.785000e-01,-1.501900e-01,3.204100e-02,1.208100e+01
5.388600e-01,6.775200e-01,-1.507100e-01,3.204100e-02,1.313700e+01
5.462200e-01,7.218900e-01,-1.507600e-01,3.204100e-02,1.473500e+01
5.525000e-01,7.413000e-01,-1.507800e-01,3.204100e-02,1.537600e+01
5.729600e-01,7.511900e-01,-1.507900e-01,3.204100e-02,1.511200e+01
5.855100e-01,7.750000e-01,-1.508100e-01,3.204100e-02,1.391500e+01
6.302600e-01,8.250100e-01,-1.508600e-01,3.204100e-02,1.147200e+01
-7.792300e-01,6.264500e-01,-1.506600e-01,3.204100e-02,1.142000e+01
-1.117300e+00,4.310500e-01,-1.504500e-01,3.204100e-02,1.196300e+01
-1.149200e+00,4.240800e-01,-1.504400e-01,3.204100e-02,1.191600e+01
-9.642100e-01,8.315900e-01,-1.508700e-01,3.204100e-02,1.136100e+01
-1.000200e+00,8.584800e-01,-1.509000e-01,3.204100e-02,1.077900e+01
0,0,-1.500000e-01,6.408200e-02,9.886300e+00
4.387200e-01,4.732900e-01,-1.505000e-01,6.408200e-02,9.660800e+00
3.410500e-01,1.061300e-01,-1.501100e-01,6.408200e-02,1.085700e+01
3.819700e-01,3.896600e-01,-1.504100e-01,6.408200e-02,1.357000e+01
4.272600e-01,6.840000e-01,-1.507200e-01,6.408200e-02,1.336300e+01
4.911100e-01,7.934800e-01,-1.508300e-01,6.408200e-02,1.265800e+01
5.413100e-01,8.481400e-01,-1.508900e-01,6.408200e-02,1.122400e+01
-8.498900e-01,8.215400e-01,-1.508600e-01,6.408200e-02,1.072000e+01
-9.036400e-01,7.149000e-01,-1.507500e-01,6.408200e-02,1.097900e+01
-9.691200e-01,4.595500e-01,-1.504800e-01,6.408200e-02,1.044700e+01
0,0,-1.500000e-01,9.612300e-02,9.534100e+00
4.141700e-01,5.532200e-01,-1.505800e-01,9.612300e-02,9.920500e+00
4.256300e-01,5.136000e-01,-1.505400e-01,9.612300e-02,9.987800e+00
3.342300e-01,2.914400e-01,-1.503100e-01,9.612300e-02,1.057400e+01
4.199000e-01,2.236000e-01,-1.502300e-01,9.612300e-02,1.350900e+01
4.660100e-01,5.664300e-01,-1.505900e-01,9.612300e-02,14
4.905600e-01,7.001300e-01,-1.507300e-01,9.612300e-02,1.399400e+01
5.238500e-01,7.712900e-01,-1.508100e-01,9.612300e-02,1.321600e+01
5.582300e-01,8.274700e-01,-1.508700e-01,9.612300e-02,1.166800e+01
6.482600e-01,9.494000e-01,-1.509900e-01,9.612300e-02,9.978300e+00
0,0,-1.500000e-01,1.281600e-01,9.581900e+00
4.752800e-01,6.174100e-01,-1.506500e-01,1.281600e-01,1.071600e+01
5.009300e-01,6.688100e-01,-1.507000e-01,1.281600e-01,1.258200e+01
5.194800e-01,6.988600e-01,-1.507300e-01,1.281600e-01,1.339800e+01
5.380400e-01,7.257700e-01,-1.507600e-01,1.281600e-01,1.338700e+01
5.565900e-01,7.551000e-01,-1.507900e-01,1.281600e-01,1.265700e+01
5.751400e-01,7.852900e-01,-1.508200e-01,1.281600e-01,1.118500e+01
2.695600e-01,3.695300e-01,-1.503900e-01,1.602100e-01,1.019400e+01
6.114300e-01,7.120000e-01,-1.507500e-01,1.602100e-01,1.141100e+01
6.340800e-01,7.168200e-01,-1.507500e-01,1.602100e-01,1.158500e+01
5.301200e-01,6.471700e-01,-1.506800e-01,1.602100e-01,1.162600e+01
5.484000e-01,6.386600e-01,-1.506700e-01,1.602100e-01,1.134100e+01
5.836000e-01,6.222200e-01,-1.506500e-01,1.602100e-01,1.022900e+01
4.493600e-01,5.979700e-01,-1.506300e-01,1.922500e-01,1.099900e+01
4.889300e-01,6.703400e-01,-1.507000e-01,1.922500e-01,1.251300e+01
5.143000e-01,6.969600e-01,-1.507300e-01,1.922500e-01,1.276300e+01
5.402200e-01,7.145500e-01,-1.507500e-01,1.922500e-01,1.184600e+01
1.676300e+00,8.735900e-01,-1.509100e-01,-1.025300e+00,9.726700e+00
-1.204900e+00,6.554200e+00,-1.568600e-01,-1.025300e+00,1.036000e+01
-1.263800e+00,6.567900e+00,-1.568800e-01,-1.025300e+00,1.037500e+01
-1.100100e+00,6.561100e+00,-1.568700e-01,-9.932700e-01,1.041900e+01
-1.211100e+00,6.600000e+00,-1.569100e-01,-9.932700e-01,1.053100e+01
-1.100100e+00,6.598700e+00,-1.569100e-01,-9.612300e-01,1.036800e+01
-1.158500e+00,6.639100e+00,-1.569500e-01,-9.612300e-01,1.057600e+01
-1.100100e+00,6.614300e+00,-1.569300e-01,-9.291900e-01,1.025200e+01
-1.158500e+00,6.638200e+00,-1.569500e-01,-9.291900e-01,1.062100e+01
-1.323300e+00,6.634800e+00,-1.569500e-01,-9.291900e-01,1.011800e+01
-1.062400e+00,1.743200e+00,-1.518300e-01,-8.971500e-01,1.013400e+01
-2.280900e+00,2.408700e+00,-1.525200e-01,-8.651100e-01,1.035500e+01
-1.140500e+00,1.291300e+00,-1.513500e-01,-8.330700e-01,1.005300e+01
-7.284800e-01,3.020800e+00,-1.531600e-01,-8.330700e-01,9.919100e+00
-2.180000e+00,2.450600e+00,-1.525700e-01,-8.330700e-01,1.044100e+01
-2.177200e+00,2.501000e+00,-1.526200e-01,-8.330700e-01,1.080900e+01
-1.202700e+00,1.595000e+00,-1.516700e-01,-8.010300e-01,9.989500e+00
-1.142900e+00,1.692900e+00,-1.517700e-01,-8.010300e-01,1.047100e+01
-1.145900e+00,1.722400e+00,-1.518000e-01,-8.010300e-01,1.014400e+01
-2.103000e+00,2.517400e+00,-1.526400e-01,-8.010300e-01,1.029400e+01
-2.099500e+00,2.565900e+00,-1.526900e-01,-8.010300e-01,1.070900e+01
-1.353000e+00,1.397400e+00,-1.514600e-01,-7.689800e-01,1.052000e+01
-1.313400e+00,1.496100e+00,-1.515700e-01,-7.689800e-01,1.062700e+01
-1.175100e+00,1.656100e+00,-1.517300e-01,-7.689800e-01,1.034400e+01
-8.785400e-02,6.100600e-01,-1.506400e-01,-7.369400e-01,9.663100e+00
-4.681900e-01,1.272700e+00,-1.513300e-01,-7.369400e-01,9.675900e+00
-1.306300e+00,1.457900e+00,-1.515300e-01,-7.369400e-01,1.016000e+01
-1.266000e+00,1.540900e+00,-1.516100e-01,-7.369400e-01,1.009100e+01
-1.142900e+00,1.687600e+00,-1.517700e-01,-7.369400e-01,9.857100e+00
-1.117300e+00,2.951000e+00,-1.530900e-01,-7.369400e-01,1.004000e+01
-1.154700e+00,2.918000e+00,-1.530600e-01,-7.369400e-01,1.014300e+01
-1.020400e-01,6.656600e-01,-1.507000e-01,-7.049000e-01,9.856300e+00
-9.412900e-02,6.848100e-01,-1.507200e-01,-7.049000e-01,1.022700e+01
-9.822200e-02,6.791800e-01,-1.507100e-01,-7.049000e-01,9.426200e+00
-4.458200e-01,1.167800e+00,-1.512200e-01,-7.049000e-01,1.044000e+01
-4.681900e-01,1.218000e+00,-1.512800e-01,-7.049000e-01,1.051900e+01
-4.802000e-01,1.254400e+00,-1.513100e-01,-7.049000e-01,9.842900e+00
-1.020400e-01,6.835300e-01,-1.507200e-01,-6.728600e-01,9.847800e+00
-1.004000e-01,7.045900e-01,-1.507400e-01,-6.728600e-01,9.853900e+00
-4.769200e-01,1.143400e+00,-1.512000e-01,-6.728600e-01,1.005600e+01
-4.788300e-01,1.209500e+00,-1.512700e-01,-6.728600e-01,1.022200e+01
-3.001200e-01,1.698900e+00,-1.517800e-01,-6.728600e-01,9.951800e+00
-4.256300e-01,1.284100e+00,-1.513400e-01,-6.408200e-01,9.594700e+00
-6.664300e+00,2.482500e+00,-1.526000e-01,-6.408200e-01,1.004100e+01
3.137600e-01,1.522200e+00,-1.515900e-01,-6.087800e-01,1.052000e+01
3.205800e-01,1.567400e+00,-1.516400e-01,-6.087800e-01,1.043000e+01
3.069400e-01,1.473500e+00,-1.515400e-01,-5.767400e-01,1.021500e+01
3.263100e-01,1.520700e+00,-1.515900e-01,-5.767400e-01,1.095600e+01
3.334100e-01,1.570600e+00,-1.516400e-01,-5.767400e-01,1.075700e+01
-8.403400e-02,6.365600e-01,-1.506700e-01,-5.447000e-01,9.983100e+00
-7.530300e-02,6.701500e-01,-1.507000e-01,-5.447000e-01,1.054400e+01
-7.202900e-02,6.949600e-01,-1.507300e-01,-5.447000e-01,1.030700e+01
3.765200e-01,1.502400e+00,-1.515700e-01,-5.447000e-01,1.028600e+01
3.718800e-01,1.571200e+00,-1.516500e-01,-5.447000e-01,1.018300e+01
-8.403400e-02,5.674300e-01,-1.505900e-01,-5.126600e-01,9.718200e+00
-5.020200e-02,6.241400e-01,-1.506500e-01,-5.126600e-01,1.043700e+01
-2.619200e-02,6.745600e-01,-1.507100e-01,-5.126600e-01,1.065700e+01
2.046300e-02,6.989500e-01,-1.507300e-01,-5.126600e-01,1.009800e+01
-2.615200e+00,3.915000e+00,-1.541000e-01,-5.126600e-01,1.077000e+01
-2.708700e+00,3.901300e+00,-1.540900e-01,-5.126600e-01,1.062000e+01
-7.732200e-01,7.570300e+00,-1.579300e-01,-5.126600e-01,1.040200e+01
-8.365200e-01,7.593300e+00,-1.579500e-01,-5.126600e-01,1.102700e+01
-8.403400e-01,7.604000e+00,-1.579600e-01,-5.126600e-01,1.083800e+01
-8.441600e-01,7.424000e+00,1.933800e+00,-5.126600e-01,9.976400e+00
-1.080400e-01,4.392200e-01,-1.504600e-01,-4.806200e-01,9.742400e+00
-5.020200e-02,5.324000e-01,-1.505600e-01,-4.806200e-01,1.008000e+01
6.548100e-03,6.837500e-01,-1.507200e-01,-4.806200e-01,1.052900e+01
4.092600e-02,7.364300e-01,-1.507700e-01,-4.806200e-01,1.034000e+01
2.946700e-01,1.497800e+00,-1.515700e-01,-4.806200e-01,9.963900e+00
3.012100e-01,1.531400e+00,-1.516000e-01,-4.806200e-01,1.091800e+01
3.205800e-01,1.567900e+00,-1.516400e-01,-4.806200e-01,1.095100e+01
3.405000e-01,1.610700e+00,-1.516900e-01,-4.806200e-01,9.968100e+00
-2.559200e+00,3.888300e+00,-1.540700e-01,-4.806200e-01,1.015900e+01
-2.578300e+00,3.941000e+00,-1.541300e-01,-4.806200e-01,1.065800e+01
-8.962700e-01,7.460700e+00,-1.578100e-01,-4.806200e-01,1.019000e+01
-9.003700e-01,7.401300e+00,1.854700e+00,-4.806200e-01,1.023500e+01
-7.530300e-02,5.731100e-01,-1.506000e-01,-4.485700e-01,9.553000e+00
3.069400e-01,1.464100e+00,-1.515300e-01,-4.485700e-01,1.044000e+01
3.137600e-01,1.502300e+00,-1.515700e-01,-4.485700e-01,1.147500e+01
3.077600e-01,1.546400e+00,-1.516200e-01,-4.485700e-01,1.154500e+01
3.143100e-01,1.584400e+00,-1.516600e-01,-4.485700e-01,1.074500e+01
-2.595800e+00,3.825400e+00,-1.540100e-01,-4.485700e-01,1.201100e+01
-2.652000e+00,3.874700e+00,-1.540600e-01,-4.485700e-01,1.291900e+01
-2.671600e+00,3.921800e+00,-1.541100e-01,-4.485700e-01,1.260800e+01
-2.803400e+00,3.843000e+00,-1.540200e-01,-4.485700e-01,1.043700e+01
-2.560300e+00,4.063000e+00,-1.542500e-01,-4.485700e-01,1.035100e+01
-2.540900e+00,4.088000e+00,-1.542800e-01,-4.485700e-01,9.898100e+00
-1.604300e-01,6.070900e-01,-1.506400e-01,-4.165300e-01,9.415200e+00
3.137600e-01,1.482400e+00,-1.515500e-01,-4.165300e-01,1.065400e+01
3.077600e-01,1.537900e+00,-1.516100e-01,-4.165300e-01,1.084900e+01
3.143100e-01,1.578500e+00,-1.516500e-01,-4.165300e-01,1.012800e+01
-2.705500e+00,3.751800e+00,-1.539300e-01,-4.165300e-01,1.117400e+01
-2.799300e+00,3.773700e+00,-1.539500e-01,-4.165300e-01,1.209200e+01
-2.820100e+00,3.805900e+00,-1.539900e-01,-4.165300e-01,1.212900e+01
-2.579100e+00,4.016500e+00,-1.542100e-01,-4.165300e-01,1.200900e+01
-2.522700e+00,4.088000e+00,-1.542800e-01,-4.165300e-01,1.173000e+01
-2.465100e+00,4.145900e+00,-1.543400e-01,-4.165300e-01,1.067200e+01
-1.661600e-01,6.173300e-01,-1.506500e-01,-3.844900e-01,9.911600e+00
-1.740700e-01,6.680500e-01,-1.507000e-01,-3.844900e-01,9.494500e+00
-2.413000e+00,3.998400e+00,-1.541900e-01,-3.844900e-01,1.095600e+01
-2.394200e+00,4.057900e+00,-1.542500e-01,-3.844900e-01,1.208400e+01
-2.449000e+00,4.068400e+00,-1.542600e-01,-3.844900e-01,1.242700e+01
-2.541800e+00,4.049100e+00,-1.542400e-01,-3.844900e-01,1.267000e+01
-2.522700e+00,4.102000e+00,-1.543000e-01,-3.844900e-01,1.252500e+01
-2.540900e+00,4.130500e+00,-1.543300e-01,-3.844900e-01,1.164000e+01
-2.712000e+00,4.017600e+00,-1.542100e-01,-3.844900e-01,1.025500e+01
-1.432400e-01,6.005800e-01,-1.506300e-01,-3.524500e-01,9.574200e+00
-1.500600e-01,6.403000e-01,-1.506700e-01,-3.524500e-01,9.516500e+00
-2.431000e+00,4.039500e+00,-1.542300e-01,-3.524500e-01,1.121100e+01
-2.411900e+00,4.087800e+00,-1.542800e-01,-3.524500e-01,1.113200e+01
-2.467000e+00,4.089800e+00,-1.542800e-01,-3.524500e-01,1.113200e+01
-2.522700e+00,4.099600e+00,-1.542900e-01,-3.524500e-01,1.145300e+01
-2.540900e+00,4.130200e+00,-1.543300e-01,-3.524500e-01,1.073800e+01
3.732400e-01,3.478200e-01,-1.503600e-01,-9.612300e-02,9.597300e+00
8.070600e-01,5.797600e-01,-1.506100e-01,-9.612300e-02,1.083300e+01
1.718900e-01,3.167700e-01,-1.503300e-01,-9.612300e-02,1.043300e+01
-8.441600e-01,7.217300e-01,-1.507600e-01,-9.612300e-02,9.984600e+00
-8.976400e-01,7.940600e-01,-1.508300e-01,-9.612300e-02,1.038700e+01
-9.331100e-01,8.062000e-01,-1.508400e-01,-9.612300e-02,1.071500e+01
-9.489300e-01,8.270900e-01,-1.508700e-01,-9.612300e-02,1.043900e+01
0,0,-1.500000e-01,-6.408200e-02,9.728900e+00
3.961600e-01,5.372100e-01,-1.505600e-01,-6.408200e-02,9.940600e+00
4.204400e-01,5.328400e-01,-1.505600e-01,-6.408200e-02,1.002300e+01
3.896100e-01,5.604600e-01,-1.505900e-01,-6.408200e-02,1.087000e+01
3.956200e-01,5.153400e-01,-1.505400e-01,-6.408200e-02,1.134000e+01
2.373700e-01,5.297300e-01,-1.505500e-01,-6.408200e-02,1.090400e+01
6.766400e-01,6.481000e-01,-1.506800e-01,-6.408200e-02,1.020400e+01
-8.938200e-01,8.065200e-01,-1.508400e-01,-6.408200e-02,1.004600e+01
0,0,-1.500000e-01,-3.204100e-02,1.575200e+01
-4.010700e-02,2.865700e-02,-1.500300e-01,-3.204100e-02,1.516700e+01
-7.312100e-02,6.293800e-02,-1.500700e-01,-3.204100e-02,1.430200e+01
-1.091400e-02,1.318300e-01,-1.501400e-01,-3.204100e-02,1.350300e+01
-3.274100e-03,1.340200e-01,-1.501400e-01,-3.204100e-02,1.260400e+01
9.549300e-03,1.735400e-01,-1.501800e-01,-3.204100e-02,1.201300e+01
5.456800e-01,6.681200e-01,-1.507000e-01,-3.204100e-02,1.320200e+01
5.533200e-01,7.184500e-01,-1.507500e-01,-3.204100e-02,1.488700e+01
5.598600e-01,7.397000e-01,-1.507700e-01,-3.204100e-02,1.560800e+01
5.729600e-01,7.482900e-01,-1.507800e-01,-3.204100e-02,1.543300e+01
5.855100e-01,7.566900e-01,-1.507900e-01,-3.204100e-02,1.424800e+01
6.057000e-01,8.333200e-01,-1.508700e-01,-3.204100e-02,1.164600e+01
-7.235700e-01,5.382500e-01,-1.505600e-01,-3.204100e-02,1.087100e+01
-9.740300e-01,4.222400e-01,-1.504400e-01,-3.204100e-02,1.190200e+01
-9.331100e-01,3.891900e-01,-1.504100e-01,-3.204100e-02,1.259200e+01
-9.691200e-01,3.063700e-01,-1.503200e-01,-3.204100e-02,1.196600e+01
-1.016000e+00,8.145900e-01,-1.508500e-01,-3.204100e-02,1.114200e+01
-1.010900e+00,8.985000e-01,-1.509400e-01,-3.204100e-02,1.062100e+01
