0,0,-1.500000e-01,0,1.678900e+01
-4.092600e-02,1.867000e-02,-1.500300e-01,0,1.618600e+01
-7.312100e-02,6.470500e-02,-1.500900e-01,0,1.532400e+01
-1.227800e-02,1.337800e-01,-1.502000e-01,0,1.452800e+01
-4.911100e-03,1.340800e-01,-1.502000e-01,0,1.349200e+01
1.145900e-02,1.756900e-01,-1.502600e-01,0,1.300900e+01
5.456800e-01,6.641200e-01,-1.509700e-01,0,1.420400e+01
5.533200e-01,7.193000e-01,-1.510500e-01,0,1.589400e+01
5.598600e-01,7.438000e-01,-1.510900e-01,0,1.659400e+01
5.729600e-01,7.539100e-01,-1.511100e-01,0,1.639300e+01
5.934200e-01,7.516100e-01,-1.511000e-01,0,1.519900e+01
5.647800e-01,8.165900e-01,-1.512000e-01,0,1.294200e+01
-7.421200e-01,6.170600e-01,-1.509000e-01,0,1.166000e+01
-1.012200e+00,4.890400e-01,-1.507200e-01,0,1.255600e+01
-9.331100e-01,3.388900e-01,-1.505000e-01,0,1.317300e+01
-9.590300e-01,5.167200e-01,-1.507600e-01,0,1.252700e+01
-1.016000e+00,7.876100e-01,-1.511500e-01,0,1.253400e+01
-1.042800e+00,7.709600e-01,-1.511300e-01,0,1.182700e+01
-1.069500e+00,8.184800e-01,-1.512000e-01,0,1.032200e+01
0,0,-1.500000e-01,3.204100e-02,1.578000e+01
-4.092600e-02,2.398100e-02,-1.500400e-01,3.204100e-02,1.517100e+01
-7.312100e-02,6.663200e-02,-1.501000e-01,3.204100e-02,1.432100e+01
-1.227800e-02,1.356200e-01,-1.502000e-01,3.204100e-02,1.353200e+01
-4.911100e-03,1.372000e-01,-1.502000e-01,3.204100e-02,1.252200e+01
1.145900e-02,1.768100e-01,-1.502600e-01,3.204100e-02,1.200400e+01
5.456800e-01,6.642700e-01,-1.509700e-01,3.204100e-02,1.318800e+01
5.533200e-01,7.192800e-01,-1.510500e-01,3.204100e-02,1.488000e+01
5.598600e-01,7.436800e-01,-1.510900e-01,3.204100e-02,1.557700e+01
5.729600e-01,7.522200e-01,-1.511000e-01,3.204100e-02,1.536200e+01
5.855100e-01,7.476300e-01,-1.511000e-01,3.204100e-02,1.411900e+01
5.402200e-01,8.348700e-01,-1.512200e-01,3.204100e-02,1.181500e+01
-7.421200e-01,7.022600e-01,-1.510300e-01,3.204100e-02,1.078800e+01
-9.835800e-01,6.324500e-01,-1.509300e-01,3.204100e-02,1.181600e+01
-9.724000e-01,5.738100e-01,-1.508400e-01,3.204100e-02,1.221300e+01
-1.026400e+00,8.040100e-01,-1.511800e-01,3.204100e-02,1.076000e+01
-1.021500e+00,8.299300e-01,-1.512200e-01,3.204100e-02,1.048500e+01
0,0,-1.500000e-01,6.408200e-02,9.834000e+00
-3.465000e-02,4.069300e-03,-1.500100e-01,6.408200e-02,1.002800e+01
5.576800e-01,7.207800e-01,-1.510600e-01,6.408200e-02,1.163500e+01
5.855100e-01,7.292500e-01,-1.510700e-01,6.408200e-02,1.227000e+01
5.975200e-01,7.138000e-01,-1.510500e-01,6.408200e-02,1.185400e+01
5.920600e-01,6.665000e-01,-1.509800e-01,6.408200e-02,1.045100e+01
-1.029700e+00,5.513100e-01,-1.508100e-01,6.408200e-02,1.048200e+01
-1.047200e+00,7.999700e-01,-1.511700e-01,6.408200e-02,1.007100e+01
0,0,-1.500000e-01,9.612300e-02,9.887500e+00
4.714600e-01,4.136900e-01,-1.506100e-01,9.612300e-02,1.123600e+01
5.347600e-01,7.721900e-01,-1.511300e-01,9.612300e-02,1.245500e+01
5.617700e-01,7.814400e-01,-1.511500e-01,9.612300e-02,1.287100e+01
5.729600e-01,8.023100e-01,-1.511800e-01,9.612300e-02,1.241000e+01
5.666900e-01,8.496800e-01,-1.512500e-01,9.612300e-02,1.112700e+01
-9.036400e-01,3.690200e-01,-1.505400e-01,9.612300e-02,9.917300e+00
-1.120500e+00,3.421900e-01,-1.505000e-01,9.612300e-02,1.001400e+01
0,0,-1.500000e-01,1.281600e-01,9.860700e+00
-1.080400e-01,4.689700e-01,-1.506900e-01,1.281600e-01,9.491300e+00
-1.192300e-01,4.850200e-01,-1.507100e-01,1.281600e-01,9.466300e+00
5.009300e-01,2.585100e-01,-1.503800e-01,1.281600e-01,1.023600e+01
5.424000e-01,8.054000e-01,-1.511800e-01,1.281600e-01,1.142100e+01
5.459500e-01,8.359000e-01,-1.512300e-01,1.281600e-01,1.167400e+01
5.484000e-01,8.833400e-01,-1.513000e-01,1.281600e-01,1.117800e+01
5.751400e-01,9.122000e-01,-1.513400e-01,1.281600e-01,1.038300e+01
6.024300e-01,9.031500e-01,-1.513200e-01,1.281600e-01,1.045200e+01
6.122500e-01,9.147600e-01,-1.513400e-01,1.281600e-01,1.036700e+01
0,0,-1.500000e-01,1.602100e-01,9.689800e+00
4.894700e-01,5.282900e-01,-1.507700e-01,1.602100e-01,9.869600e+00
5.377600e-01,7.314900e-01,-1.510700e-01,1.602100e-01,1.089400e+01
5.653200e-01,7.755300e-01,-1.511400e-01,1.602100e-01,1.137100e+01
5.934200e-01,8.029600e-01,-1.511800e-01,1.602100e-01,1.079800e+01
6.548100e-01,8.177900e-01,-1.512000e-01,1.602100e-01,9.959000e+00
6.373500e-01,8.955400e-01,-1.513100e-01,1.602100e-01,9.838300e+00
6.122500e-01,9.174400e-01,-1.513500e-01,1.602100e-01,9.842600e+00
4.752800e-01,5.684300e-01,-1.508300e-01,1.922500e-01,1.004000e+01
5.304000e-01,7.672800e-01,-1.511200e-01,1.922500e-01,1.125200e+01
5.653200e-01,7.807700e-01,-1.511400e-01,1.922500e-01,1.182500e+01
6.092500e-01,7.927100e-01,-1.511600e-01,1.922500e-01,1.144200e+01
6.630000e-01,8.101100e-01,-1.511900e-01,1.922500e-01,1.012500e+01
4.327200e-01,3.480900e-01,-1.505100e-01,2.242900e-01,1.006000e+01
5.156600e-01,7.864200e-01,-1.511500e-01,2.242900e-01,1.137900e+01
5.500400e-01,7.508300e-01,-1.511000e-01,2.242900e-01,1.187100e+01
5.776000e-01,7.313000e-01,-1.510700e-01,2.242900e-01,1.127300e+01
5.975200e-01,6.854300e-01,-1.510000e-01,2.242900e-01,1.016100e+01
-1.697600e+00,1.225600e+00,-1.518000e-01,-8.651100e-01,1.004800e+01
-1.725400e+00,1.272600e+00,-1.518700e-01,-8.651100e-01,1.027900e+01
-3.550400e+00,3.504100e+00,-1.551400e-01,-8.651100e-01,1.074900e+01
-3.614600e+00,3.495400e+00,-1.551200e-01,-8.651100e-01,1.106400e+01
-3.797900e+00,3.349400e+00,-1.549100e-01,-8.651100e-01,1.028800e+01
-1.099300e+00,1.310800e+00,-1.519200e-01,-8.330700e-01,1.019700e+01
-1.163400e+00,1.316300e+00,-1.519300e-01,-8.330700e-01,1.038900e+01
-1.826900e+00,1.131600e+00,-1.516600e-01,-8.330700e-01,9.946100e+00
-1.925100e+00,2.213300e+00,-1.532400e-01,-8.330700e-01,1.001200e+01
-3.653900e+00,3.454200e+00,-1.550600e-01,-8.330700e-01,1.024000e+01
-1.141000e+00,1.247500e+00,-1.518300e-01,-8.010300e-01,1.029000e+01
-1.177600e+00,1.272200e+00,-1.518700e-01,-8.010300e-01,1.065900e+01
-1.229100e+00,1.222900e+00,-1.517900e-01,-8.010300e-01,1.008800e+01
-1.220100e+00,1.286500e+00,-1.518900e-01,-7.689800e-01,1.003600e+01
-3.614600e+00,3.489500e+00,-1.551200e-01,-7.369400e-01,1.044200e+01
-3.639700e+00,3.487200e+00,-1.551100e-01,-7.369400e-01,1.002100e+01
-7.830500e-01,1.167000e+00,-1.517100e-01,-7.049000e-01,9.983100e+00
-3.496700e+00,3.608300e+00,-1.552900e-01,-7.049000e-01,1.009100e+01
-3.546900e-01,7.640400e-01,-1.511200e-01,-6.728600e-01,1.017800e+01
-3.978000e-01,7.789400e-01,-1.511400e-01,-6.728600e-01,1.032000e+01
-4.507300e-01,7.825900e-01,-1.511500e-01,-6.728600e-01,9.705800e+00
-8.389800e-01,1.121800e+00,-1.516400e-01,-6.728600e-01,9.892800e+00
-1.697600e+00,1.241400e+00,-1.518200e-01,-6.728600e-01,1.020200e+01
-1.708500e+00,1.279200e+00,-1.518800e-01,-6.728600e-01,1.044000e+01
-3.476000e-01,7.833000e-01,-1.511500e-01,-6.408200e-01,9.763400e+00
-2.241900e+00,2.145900e+00,-1.531500e-01,-4.165300e-01,1.009100e+01
-2.319100e+00,2.531800e+00,-1.537100e-01,-4.165300e-01,1.115500e+01
-2.314800e+00,2.602600e+00,-1.538200e-01,-4.165300e-01,1.103600e+01
-2.346400e+00,2.529300e+00,-1.537100e-01,-3.844900e-01,1.082100e+01
-2.397400e+00,2.554700e+00,-1.537500e-01,-3.844900e-01,1.120000e+01
-2.449000e+00,2.559200e+00,-1.537500e-01,-3.844900e-01,1.070500e+01
-1.122500e+00,6.430000e+00,-1.594300e-01,-3.524500e-01,1.048300e+01
-1.179800e+00,6.452900e+00,-1.594600e-01,-3.524500e-01,1.086900e+01
0,0,-1.500000e-01,-3.204100e-01,9.568700e+00
-1.224500e+00,6.409700e+00,-1.594000e-01,-3.204100e-01,1.117900e+01
-1.231000e+00,6.448900e+00,-1.594500e-01,-3.204100e-01,1.152800e+01
-1.186000e+00,6.465100e+00,-1.594800e-01,-3.204100e-01,1.048700e+01
0,0,-1.500000e-01,-2.883700e-01,9.367000e+00
2.728400e-04,3.488000e-02,-1.500500e-01,-2.883700e-01,9.282400e+00
-1.128500e+00,6.415900e+00,-1.594100e-01,-2.883700e-01,1.020600e+01
0,0,-1.500000e-01,-9.612300e-02,9.797800e+00
-1.571500e-01,3.728600e-01,-1.505500e-01,-9.612300e-02,9.245400e+00
-1.658900e-01,4.198200e-01,-1.506200e-01,-9.612300e-02,9.268400e+00
0,0,-1.500000e-01,-6.408200e-02,1.028900e+01
-3.274100e-02,5.357900e-03,-1.500100e-01,-6.408200e-02,1.018400e+01
-6.439000e-02,7.792800e-03,-1.500100e-01,-6.408200e-02,9.652200e+00
-1.620700e-01,4.197400e-01,-1.506200e-01,-6.408200e-02,9.391800e+00
-1.710700e-01,4.269800e-01,-1.506300e-01,-6.408200e-02,9.361700e+00
-8.498900e-01,8.568900e-01,-1.512600e-01,-6.408200e-02,1.128300e+01
-8.840000e-01,8.923800e-01,-1.513100e-01,-6.408200e-02,1.181700e+01
-9.186500e-01,9.050500e-01,-1.513300e-01,-6.408200e-02,1.128400e+01
0,0,-1.500000e-01,-3.204100e-02,1.576800e+01
-4.092600e-02,1.390400e-02,-1.500200e-01,-3.204100e-02,1.516000e+01
-7.202900e-02,6.752400e-02,-1.501000e-01,-3.204100e-02,1.429500e+01
-1.227800e-02,1.318500e-01,-1.501900e-01,-3.204100e-02,1.349300e+01
-4.911100e-03,1.317900e-01,-1.501900e-01,-3.204100e-02,1.220500e+01
9.549300e-03,1.699700e-01,-1.502500e-01,-3.204100e-02,1.196100e+01
5.456800e-01,6.654300e-01,-1.509800e-01,-3.204100e-02,1.319700e+01
5.533200e-01,7.189700e-01,-1.510500e-01,-3.204100e-02,1.489500e+01
5.598600e-01,7.420400e-01,-1.510900e-01,-3.204100e-02,1.559900e+01
5.729600e-01,7.506100e-01,-1.511000e-01,-3.204100e-02,1.540200e+01
5.934200e-01,7.477200e-01,-1.511000e-01,-3.204100e-02,1.421800e+01
5.647800e-01,8.220100e-01,-1.512100e-01,-3.204100e-02,1.195600e+01
-7.514000e-01,1.843400e-01,-1.502700e-01,-3.204100e-02,1.062400e+01
-8.938200e-01,6.117700e-01,-1.509000e-01,-3.204100e-02,1.246900e+01
-9.388400e-01,8.124500e-01,-1.511900e-01,-3.204100e-02,1.272400e+01
-1.005700e+00,7.763600e-01,-1.511400e-01,-3.204100e-02,1.204700e+01
-1.053400e+00,6.819500e-01,-1.510000e-01,-3.204100e-02,1.094100e+01
