0,0,-1.500000e-01,0,1.681100e+01
-4.092600e-02,2.060100e-02,-1.499700e-01,0,1.618500e+01
-7.312100e-02,6.506700e-02,-1.499000e-01,0,1.530900e+01
-1.091400e-02,1.340300e-01,-1.498000e-01,0,1.450800e+01
-3.274100e-03,1.365200e-01,-1.498000e-01,0,1.361000e+01
9.549300e-03,1.783400e-01,-1.497400e-01,0,1.301400e+01
5.456800e-01,6.660600e-01,-1.490200e-01,0,1.420200e+01
5.533200e-01,7.190900e-01,-1.489500e-01,0,1.589900e+01
5.598600e-01,7.430800e-01,-1.489100e-01,0,1.662700e+01
5.729600e-01,7.531100e-01,-1.489000e-01,0,1.648000e+01
5.934200e-01,7.497700e-01,-1.489000e-01,0,1.536700e+01
5.811500e-01,7.840700e-01,-1.488500e-01,0,1.299600e+01
-7.514000e-01,6.432900e-01,-1.490600e-01,0,1.202700e+01
-1.021800e+00,5.575700e-01,-1.491800e-01,0,1.264400e+01
-9.724000e-01,4.797600e-01,-1.493000e-01,0,1.327700e+01
-9.792200e-01,3.133400e-01,-1.495400e-01,0,1.248600e+01
-1.026400e+00,7.927900e-01,-1.488400e-01,0,1.226900e+01
-1.064100e+00,7.543200e-01,-1.488900e-01,0,1.185200e+01
-1.124100e+00,6.915300e-01,-1.489900e-01,0,1.063100e+01
0,0,-1.500000e-01,3.204100e-02,1.582000e+01
-4.092600e-02,2.441900e-02,-1.499600e-01,3.204100e-02,1.516800e+01
-7.312100e-02,6.697100e-02,-1.499000e-01,3.204100e-02,1.429300e+01
-1.227800e-02,1.336400e-01,-1.498000e-01,3.204100e-02,1.350000e+01
-4.911100e-03,1.380100e-01,-1.498000e-01,3.204100e-02,1.260900e+01
1.145900e-02,1.822300e-01,-1.497300e-01,3.204100e-02,1.198900e+01
5.456800e-01,6.624200e-01,-1.490300e-01,3.204100e-02,1.315800e+01
5.533200e-01,7.195000e-01,-1.489500e-01,3.204100e-02,1.486300e+01
5.598600e-01,7.451700e-01,-1.489100e-01,3.204100e-02,1.560200e+01
5.806000e-01,7.560900e-01,-1.488900e-01,3.204100e-02,1.547300e+01
6.092500e-01,7.678100e-01,-1.488700e-01,3.204100e-02,1.438200e+01
6.711800e-01,7.760000e-01,-1.488600e-01,3.204100e-02,1.177600e+01
-8.719900e-01,7.927000e-01,-1.488400e-01,3.204100e-02,1.072500e+01
-9.549300e-01,6.197400e-01,-1.490900e-01,3.204100e-02,1.216200e+01
-9.429300e-01,4.874700e-01,-1.492900e-01,3.204100e-02,1.260300e+01
-1.026400e+00,8.332300e-01,-1.487800e-01,3.204100e-02,1.110100e+01
-1.064100e+00,7.646600e-01,-1.488800e-01,3.204100e-02,1.069800e+01
0,0,-1.500000e-01,6.408200e-02,9.531900e+00
5.347600e-01,7.458800e-01,-1.489100e-01,6.408200e-02,1.319500e+01
5.301200e-01,7.706800e-01,-1.488700e-01,6.408200e-02,1.343300e+01
5.484000e-01,8.090000e-01,-1.488100e-01,6.408200e-02,1.302800e+01
5.666900e-01,8.667300e-01,-1.487300e-01,6.408200e-02,1.183200e+01
-9.388400e-01,8.728300e-01,-1.487200e-01,6.408200e-02,1.019200e+01
-9.538400e-01,9.209000e-01,-1.486500e-01,6.408200e-02,9.848100e+00
0,0,-1.500000e-01,9.612300e-02,9.733700e+00
-1.817100e-01,5.110900e-01,-1.492500e-01,9.612300e-02,9.341200e+00
5.576800e-01,7.574400e-01,-1.488900e-01,9.612300e-02,1.291300e+01
5.459500e-01,7.677900e-01,-1.488700e-01,9.612300e-02,1.330000e+01
5.484000e-01,7.811900e-01,-1.488500e-01,9.612300e-02,1.302300e+01
5.582300e-01,8.142300e-01,-1.488100e-01,9.612300e-02,1.191000e+01
-9.232800e-01,8.033200e-01,-1.488200e-01,9.612300e-02,1.127300e+01
-9.388400e-01,8.383400e-01,-1.487700e-01,9.612300e-02,1.157000e+01
-9.642100e-01,8.663000e-01,-1.487300e-01,9.612300e-02,1.084800e+01
-1.000200e+00,9.060300e-01,-1.486700e-01,9.612300e-02,9.723600e+00
2.873000e-01,4.562900e-01,-1.493300e-01,1.281600e-01,1.003100e+01
5.696900e-01,7.748800e-01,-1.488600e-01,1.281600e-01,1.154400e+01
5.729600e-01,7.860400e-01,-1.488500e-01,1.281600e-01,1.191200e+01
5.836000e-01,8.025500e-01,-1.488200e-01,1.281600e-01,1.130700e+01
5.849700e-01,8.225300e-01,-1.487900e-01,1.281600e-01,1.000200e+01
-9.134600e-01,8.386200e-01,-1.487700e-01,1.281600e-01,1.059800e+01
-9.388400e-01,8.661600e-01,-1.487300e-01,1.281600e-01,1.094700e+01
-9.849500e-01,8.662500e-01,-1.487300e-01,1.281600e-01,1.029900e+01
0,0,-1.500000e-01,1.602100e-01,9.189000e+00
5.347600e-01,7.477300e-01,-1.489000e-01,1.602100e-01,9.802300e+00
5.696900e-01,7.846600e-01,-1.488500e-01,1.602100e-01,1.069300e+01
5.893300e-01,8.131800e-01,-1.488100e-01,1.602100e-01,1.085100e+01
6.174300e-01,8.454500e-01,-1.487600e-01,1.602100e-01,1.016300e+01
-1.039800e+00,7.670400e-01,-1.488800e-01,1.602100e-01,1.005300e+01
-3.308700e+00,5.346500e+00,-1.421600e-01,-1.121400e+00,1.061400e+01
-3.327000e+00,5.388700e+00,-1.421000e-01,-1.121400e+00,1.142500e+01
-3.345300e+00,5.420700e+00,-1.420500e-01,-1.121400e+00,1.126400e+01
-3.313300e+00,5.504200e+00,-1.419300e-01,-1.121400e+00,1.012100e+01
-3.259300e+00,5.407100e+00,-1.420700e-01,-1.089400e+00,1.155900e+01
-3.227700e+00,5.471300e+00,-1.419800e-01,-1.089400e+00,1.224400e+01
-3.245400e+00,5.498600e+00,-1.419400e-01,-1.089400e+00,1.191000e+01
-3.313300e+00,5.483700e+00,-1.419600e-01,-1.089400e+00,1.051700e+01
-3.259300e+00,5.413600e+00,-1.420600e-01,-1.057400e+00,1.122600e+01
-3.227700e+00,5.473600e+00,-1.419800e-01,-1.057400e+00,1.189900e+01
-3.245400e+00,5.499500e+00,-1.419400e-01,-1.057400e+00,1.149400e+01
-4.747400e-01,2.040900e+00,-1.470100e-01,-1.025300e+00,9.943300e+00
-1.242500e+00,2.064600e+00,-1.469700e-01,-1.025300e+00,1.018200e+01
-1.279600e+00,2.080400e+00,-1.469500e-01,-1.025300e+00,1.094400e+01
-1.336600e+00,2.083800e+00,-1.469400e-01,-1.025300e+00,1.076100e+01
-3.160600e+00,5.469700e+00,-1.419800e-01,-1.025300e+00,9.899300e+00
-3.227700e+00,5.473600e+00,-1.419800e-01,-1.025300e+00,1.051300e+01
-3.395200e+00,5.409000e+00,-1.420700e-01,-1.025300e+00,1.001700e+01
-5.729600e-01,2.005300e+00,-1.470600e-01,-9.932700e-01,1.052600e+01
-5.825100e-01,2.044800e+00,-1.470000e-01,-9.932700e-01,1.006400e+01
-1.242500e+00,2.063300e+00,-1.469800e-01,-9.932700e-01,1.098000e+01
-1.298700e+00,2.068900e+00,-1.469700e-01,-9.932700e-01,1.175500e+01
-1.356000e+00,2.071700e+00,-1.469600e-01,-9.932700e-01,1.154600e+01
-1.453700e+00,2.050900e+00,-1.469900e-01,-9.932700e-01,1.036700e+01
-8.556200e-01,3.816500e+00,-1.444000e-01,-9.932700e-01,1.037600e+01
-9.557500e-01,3.828200e+00,-1.443900e-01,-9.932700e-01,1.019500e+01
-6.384400e-01,1.994000e+00,-1.470800e-01,-9.612300e-01,9.851100e+00
-1.280200e+00,2.030200e+00,-1.470200e-01,-9.612300e-01,1.029400e+01
-1.336900e+00,2.038200e+00,-1.470100e-01,-9.612300e-01,1.083300e+01
-1.414100e+00,2.020800e+00,-1.470400e-01,-9.612300e-01,1.029900e+01
-8.861800e-01,3.795900e+00,-1.444300e-01,-9.612300e-01,1.047400e+01
-9.557500e-01,3.824300e+00,-1.443900e-01,-9.612300e-01,1.025900e+01
-1.015000e-01,4.322600e+00,-1.436600e-01,-9.612300e-01,1.008500e+01
0,4.362500e+00,-1.436000e-01,-9.612300e-01,1.092300e+01
6.875500e-02,4.397100e+00,-1.435500e-01,-9.612300e-01,1.118800e+01
6.930100e-02,4.434700e+00,-1.435000e-01,-9.612300e-01,1.057800e+01
-6.711800e-01,1.968500e+00,-1.471100e-01,-9.291900e-01,1.010400e+01
-5.991500e-01,2.000400e+00,-1.470700e-01,-9.291900e-01,1.024100e+01
-1.204900e+00,2.081000e+00,-1.469500e-01,-9.291900e-01,1.005600e+01
-1.279600e+00,2.079000e+00,-1.469500e-01,-9.291900e-01,1.082400e+01
-1.317300e+00,2.100700e+00,-1.469200e-01,-9.291900e-01,1.074800e+01
-1.257200e+00,2.170700e+00,-1.468200e-01,-9.291900e-01,1.015900e+01
1.023100e-01,4.336300e+00,-1.436400e-01,-9.291900e-01,1.150100e+01
6.875500e-02,4.382400e+00,-1.435800e-01,-9.291900e-01,1.212000e+01
6.930100e-02,4.416700e+00,-1.435200e-01,-9.291900e-01,1.166100e+01
-3.358100e+00,5.257400e+00,-1.422900e-01,-9.291900e-01,1.012100e+01
-6.439000e-01,1.934300e+00,-1.471600e-01,-8.971500e-01,1.083600e+01
-6.057000e-01,1.986300e+00,-1.470900e-01,-8.971500e-01,1.138400e+01
-5.825100e-01,2.029400e+00,-1.470200e-01,-8.971500e-01,1.142200e+01
-6.089800e-01,2.058800e+00,-1.469800e-01,-8.971500e-01,1.076700e+01
-1.223700e+00,2.067500e+00,-1.469700e-01,-8.971500e-01,1.085300e+01
-1.279600e+00,2.067600e+00,-1.469700e-01,-8.971500e-01,1.097500e+01
-2.106900e+00,2.718300e+00,-1.460100e-01,-8.971500e-01,1.012100e+01
1.691600e-01,4.272900e+00,-1.437400e-01,-8.971500e-01,1.038300e+01
6.821000e-02,4.339900e+00,-1.436400e-01,-8.971500e-01,1.186700e+01
3.437800e-02,4.384900e+00,-1.435700e-01,-8.971500e-01,1.234500e+01
3.465000e-02,4.418400e+00,-1.435200e-01,-8.971500e-01,1.180600e+01
-3.654400e+00,5.142000e+00,-1.424600e-01,-8.971500e-01,1.061100e+01
-3.624900e+00,5.207000e+00,-1.423700e-01,-8.971500e-01,1.052900e+01
-5.565900e-01,1.995500e+00,-1.470700e-01,-8.651100e-01,1.080400e+01
-5.658700e-01,2.028100e+00,-1.470300e-01,-8.651100e-01,1.127800e+01
-5.920600e-01,2.064500e+00,-1.469700e-01,-8.651100e-01,1.081600e+01
-1.204900e+00,2.086900e+00,-1.469400e-01,-8.651100e-01,1.073400e+01
-1.279600e+00,2.080400e+00,-1.469500e-01,-8.651100e-01,1.117200e+01
-1.356000e+00,2.058300e+00,-1.469800e-01,-8.651100e-01,1.065800e+01
1.691600e-01,4.300900e+00,-1.436900e-01,-8.651100e-01,1.013600e+01
6.821000e-02,4.344700e+00,-1.436300e-01,-8.651100e-01,1.137100e+01
3.437800e-02,4.387700e+00,-1.435700e-01,-8.651100e-01,1.166100e+01
3.465000e-02,4.430900e+00,-1.435000e-01,-8.651100e-01,1.107100e+01
6.984700e-02,4.458700e+00,-1.434600e-01,-8.651100e-01,9.832400e+00
-3.241300e+00,5.383900e+00,-1.421100e-01,-8.651100e-01,1.009000e+01
-3.654400e+00,5.131700e+00,-1.424800e-01,-8.651100e-01,1.053200e+01
-3.724200e+00,5.079400e+00,-1.425500e-01,-8.651100e-01,1.037800e+01
-7.243900e-01,1.880300e+00,-1.472400e-01,-8.330700e-01,9.769100e+00
-7.039200e-01,1.917200e+00,-1.471900e-01,-8.330700e-01,1.065100e+01
-7.323000e-01,1.942800e+00,-1.471500e-01,-8.330700e-01,1.071400e+01
-1.167200e+00,2.106400e+00,-1.469100e-01,-8.330700e-01,1.031300e+01
-1.260500e+00,2.092400e+00,-1.469300e-01,-8.330700e-01,1.120100e+01
-1.317300e+00,2.093100e+00,-1.469300e-01,-8.330700e-01,1.100200e+01
-2.295400e+00,5.814500e+00,-1.414800e-01,-8.330700e-01,1.008000e+01
-2.799300e+00,5.622900e+00,-1.417600e-01,-8.330700e-01,1.006800e+01
-6.548100e-01,1.938300e+00,-1.471600e-01,-8.010300e-01,1.062600e+01
-6.490800e-01,1.993400e+00,-1.470800e-01,-8.010300e-01,1.055800e+01
-1.167200e+00,2.063000e+00,-1.469800e-01,-8.010300e-01,1.046500e+01
-1.241400e+00,2.077400e+00,-1.469500e-01,-8.010300e-01,1.102100e+01
-1.278500e+00,2.099100e+00,-1.469200e-01,-8.010300e-01,1.069600e+01
-2.210000e+00,2.700900e+00,-1.460400e-01,-8.010300e-01,1.003400e+01
-2.501100e+00,1.831800e+00,-1.473100e-01,-7.369400e-01,1.082400e+01
-2.529200e+00,1.853200e+00,-1.472800e-01,-7.369400e-01,1.102500e+01
-6.171600e-01,9.265800e-01,-1.486400e-01,-7.049000e-01,1.000700e+01
-6.329800e-01,1.050900e+00,-1.484600e-01,-7.049000e-01,1.072800e+01
-6.600000e-01,1.098600e+00,-1.483900e-01,-7.049000e-01,1.052700e+01
-2.549700e+00,1.777300e+00,-1.473900e-01,-7.049000e-01,1.075700e+01
-2.529200e+00,1.863500e+00,-1.472700e-01,-7.049000e-01,1.086500e+01
-1.021500e+00,3.485300e+00,-1.448900e-01,-7.049000e-01,1.042600e+01
-1.060000e+00,3.510400e+00,-1.448500e-01,-7.049000e-01,1.066000e+01
-1.705200e-01,4.339300e+00,-1.436400e-01,-7.049000e-01,1.041200e+01
-1.718900e-01,4.386600e+00,-1.435700e-01,-7.049000e-01,1.034500e+01
-5.816900e-01,1.250500e+00,-1.481700e-01,-6.728600e-01,9.793200e+00
-2.501100e+00,1.845200e+00,-1.472900e-01,-6.728600e-01,1.041900e+01
-2.504700e+00,1.873700e+00,-1.472500e-01,-6.728600e-01,1.046000e+01
-2.170700e+00,1.618500e+00,-1.476300e-01,-6.408200e-01,1.025000e+01
-2.501100e+00,1.815200e+00,-1.473400e-01,-6.408200e-01,1.092100e+01
-2.553800e+00,1.807700e+00,-1.473500e-01,-6.408200e-01,1.096900e+01
1.200500e-01,7.269200e-01,-1.489300e-01,-6.087800e-01,1.032700e+01
1.129600e-01,7.459400e-01,-1.489100e-01,-6.087800e-01,1.088700e+01
9.167400e-02,7.562600e-01,-1.488900e-01,-6.087800e-01,1.055500e+01
-6.821000e-03,7.385400e-01,-1.489200e-01,-6.087800e-01,1.016300e+01
-3.546900e-02,7.705200e-01,-1.488700e-01,-6.087800e-01,1.011300e+01
-2.501100e+00,1.839000e+00,-1.473000e-01,-6.087800e-01,1.080100e+01
-2.504700e+00,1.896100e+00,-1.472200e-01,-6.087800e-01,1.089600e+01
-2.482800e+00,1.982500e+00,-1.470900e-01,-6.087800e-01,1.006200e+01
1.200500e-01,7.237400e-01,-1.489400e-01,-5.767400e-01,1.064200e+01
1.129600e-01,7.430400e-01,-1.489100e-01,-5.767400e-01,1.126200e+01
9.822200e-02,7.539400e-01,-1.488900e-01,-5.767400e-01,1.088400e+01
1.364200e-02,7.120300e-01,-1.489600e-01,-5.767400e-01,1.013300e+01
-2.837500e-02,7.017000e-01,-1.489700e-01,-5.767400e-01,9.900500e+00
-2.428300e+00,1.940200e+00,-1.471600e-01,-5.767400e-01,1.060900e+01
-2.455500e+00,1.962000e+00,-1.471200e-01,-5.767400e-01,1.100100e+01
-2.482800e+00,1.983400e+00,-1.470900e-01,-5.767400e-01,1.034600e+01
1.080400e-01,7.147800e-01,-1.489500e-01,-5.447000e-01,1.034600e+01
1.066800e-01,7.300000e-01,-1.489300e-01,-5.447000e-01,1.113300e+01
9.822200e-02,7.413700e-01,-1.489100e-01,-5.447000e-01,1.082800e+01
6.138900e-02,7.289900e-01,-1.489300e-01,-5.447000e-01,9.681000e+00
-1.995800e+00,1.802200e+00,-1.473600e-01,-5.447000e-01,1.034200e+01
-2.480100e+00,1.930800e+00,-1.471700e-01,-5.447000e-01,1.014200e+01
1.709100e+00,5.825200e+00,-1.414600e-01,-5.447000e-01,1.024400e+01
1.140500e-01,7.290200e-01,-1.489300e-01,-5.126600e-01,9.967500e+00
1.066800e-01,7.384000e-01,-1.489200e-01,-5.126600e-01,1.079200e+01
9.822200e-02,7.567900e-01,-1.488900e-01,-5.126600e-01,1.060000e+01
-2.033200e+00,1.938400e+00,-1.471600e-01,-5.126600e-01,1.043700e+01
-2.080700e+00,1.948200e+00,-1.471400e-01,-5.126600e-01,1.040800e+01
1.899000e+00,5.769900e+00,-1.415400e-01,-5.126600e-01,1.036000e+01
1.909900e+00,5.796400e+00,-1.415000e-01,-5.126600e-01,1.017900e+01
9.603900e-02,7.366600e-01,-1.489200e-01,-4.806200e-01,9.548000e+00
1.004000e-01,7.519600e-01,-1.489000e-01,-4.806200e-01,1.041000e+01
9.822200e-02,7.763900e-01,-1.488600e-01,-4.806200e-01,1.030500e+01
-1.966900e+00,2.018800e+00,-1.470400e-01,-4.806200e-01,1.023900e+01
-2.013500e+00,2.023400e+00,-1.470300e-01,-4.806200e-01,1.013300e+01
-4.398200e-01,4.281100e+00,-1.437200e-01,-4.485700e-01,9.873800e+00
-3.315000e-01,8.478500e+00,-1.375700e-01,-4.485700e-01,1.018900e+01
-1.952200e+00,5.177800e+00,-1.424100e-01,-4.165300e-01,1.066000e+01
-2.095400e+00,5.168100e+00,-1.424200e-01,-4.165300e-01,1.159600e+01
-2.152400e+00,5.187300e+00,-1.424000e-01,-4.165300e-01,1.161900e+01
-2.165800e+00,5.226200e+00,-1.423400e-01,-4.165300e-01,1.057500e+01
-4.621900e-01,8.435300e+00,-1.376300e-01,-4.165300e-01,1.101800e+01
-3.978000e-01,8.474800e+00,-1.375800e-01,-4.165300e-01,1.147200e+01
-2.662900e-01,8.516700e+00,-1.375100e-01,-4.165300e-01,1.069900e+01
0,0,-1.500000e-01,-3.844900e-01,9.577500e+00
-7.366600e-03,7.795800e-01,-1.488600e-01,-3.844900e-01,9.415800e+00
-1.995500e+00,5.167900e+00,-1.424200e-01,-3.844900e-01,1.077500e+01
-2.095400e+00,5.170700e+00,-1.424200e-01,-3.844900e-01,1.168100e+01
-2.152400e+00,5.186800e+00,-1.424000e-01,-3.844900e-01,1.171900e+01
-2.165800e+00,5.221500e+00,-1.423400e-01,-3.844900e-01,1.094700e+01
-3.961600e-01,8.442100e+00,-1.376200e-01,-3.844900e-01,1.060300e+01
-3.315000e-01,8.472400e+00,-1.375800e-01,-3.844900e-01,1.101300e+01
-2.662900e-01,8.485000e+00,-1.375600e-01,-3.844900e-01,1.030800e+01
0,0,-1.500000e-01,-1.281600e-01,9.559300e+00
3.339500e-01,1.300400e-01,-1.498100e-01,-1.281600e-01,9.396700e+00
3.680600e-01,2.897900e-01,-1.495800e-01,-1.281600e-01,9.776000e+00
3.983400e-01,3.694600e-01,-1.494600e-01,-1.281600e-01,9.515700e+00
6.114300e-01,7.149300e-01,-1.489500e-01,-1.281600e-01,1.092600e+01
6.340800e-01,7.421700e-01,-1.489100e-01,-1.281600e-01,1.116000e+01
6.567200e-01,7.693200e-01,-1.488700e-01,-1.281600e-01,1.039100e+01
6.302600e-01,8.714700e-01,-1.487200e-01,-1.281600e-01,1.053600e+01
6.215300e-01,8.599800e-01,-1.487400e-01,-1.281600e-01,1.020600e+01
-8.938200e-01,4.599600e-01,-1.493300e-01,-1.281600e-01,1.022000e+01
-8.984600e-01,7.445200e-01,-1.489100e-01,-1.281600e-01,1.007900e+01
-9.331100e-01,7.887600e-01,-1.488400e-01,-1.281600e-01,9.954300e+00
0,0,-1.500000e-01,-9.612300e-02,9.609800e+00
3.634200e-01,2.841900e-01,-1.495800e-01,-9.612300e-02,9.610700e+00
3.784300e-01,3.175900e-01,-1.495300e-01,-9.612300e-02,1.005100e+01
3.983400e-01,3.715700e-01,-1.494600e-01,-9.612300e-02,9.516400e+00
5.604100e-01,6.858100e-01,-1.489900e-01,-9.612300e-02,1.107900e+01
5.819600e-01,7.408400e-01,-1.489100e-01,-9.612300e-02,1.232600e+01
5.882400e-01,7.775300e-01,-1.488600e-01,-9.612300e-02,1.245800e+01
5.617700e-01,7.268600e-01,-1.489300e-01,-9.612300e-02,1.123800e+01
4.583700e-01,6.494800e-01,-1.490500e-01,-9.612300e-02,1.076900e+01
6.286200e-01,8.736000e-01,-1.487200e-01,-9.612300e-02,1.108100e+01
6.482600e-01,8.636000e-01,-1.487300e-01,-9.612300e-02,1.142400e+01
6.586300e-01,8.284900e-01,-1.487900e-01,-9.612300e-02,1.065100e+01
-9.036400e-01,7.130400e-01,-1.489500e-01,-9.612300e-02,1.012200e+01
-9.287400e-01,7.996300e-01,-1.488300e-01,-9.612300e-02,1.059000e+01
-9.538400e-01,7.601100e-01,-1.488900e-01,-9.612300e-02,1.032200e+01
0,0,-1.500000e-01,-6.408200e-02,1.014800e+01
-3.001200e-03,3.479400e-02,-1.499500e-01,-6.408200e-02,9.507600e+00
4.092600e-01,3.644500e-01,-1.494700e-01,-6.408200e-02,1.043300e+01
5.533200e-01,6.776900e-01,-1.490100e-01,-6.408200e-02,1.247900e+01
5.746000e-01,7.449500e-01,-1.489100e-01,-6.408200e-02,1.351300e+01
5.882400e-01,7.768900e-01,-1.488600e-01,-6.408200e-02,1.373800e+01
5.696900e-01,8.005100e-01,-1.488300e-01,-6.408200e-02,1.287900e+01
4.829200e-01,7.876200e-01,-1.488500e-01,-6.408200e-02,1.154700e+01
4.821100e-01,7.128400e-01,-1.489500e-01,-6.408200e-02,1.042400e+01
5.937000e-01,8.783100e-01,-1.487100e-01,-6.408200e-02,1.106300e+01
6.392600e-01,8.760100e-01,-1.487200e-01,-6.408200e-02,1.123600e+01
6.679100e-01,8.833800e-01,-1.487000e-01,-6.408200e-02,1.033400e+01
-9.134600e-01,8.489500e-01,-1.487600e-01,-6.408200e-02,1.012400e+01
-9.287400e-01,8.272900e-01,-1.487900e-01,-6.408200e-02,1.069900e+01
-9.538400e-01,7.928800e-01,-1.488400e-01,-6.408200e-02,1.034400e+01
0,0,-1.500000e-01,-3.204100e-02,1.576900e+01
-4.092600e-02,1.748000e-02,-1.499700e-01,-3.204100e-02,1.516400e+01
-7.312100e-02,6.289400e-02,-1.499100e-01,-3.204100e-02,1.428800e+01
-1.091400e-02,1.333200e-01,-1.498000e-01,-3.204100e-02,1.346800e+01
-3.274100e-03,1.369500e-01,-1.498000e-01,-3.204100e-02,1.259000e+01
9.549300e-03,1.798500e-01,-1.497400e-01,-3.204100e-02,1.197000e+01
5.593200e-01,6.586600e-01,-1.490300e-01,-3.204100e-02,1.325000e+01
5.675000e-01,7.082800e-01,-1.489600e-01,-3.204100e-02,1.497700e+01
5.746000e-01,7.363200e-01,-1.489200e-01,-3.204100e-02,1.574800e+01
5.882400e-01,7.507000e-01,-1.489000e-01,-3.204100e-02,1.568400e+01
6.013400e-01,7.590500e-01,-1.488900e-01,-3.204100e-02,1.470900e+01
5.647800e-01,8.261800e-01,-1.487900e-01,-3.204100e-02,1.270900e+01
-7.514000e-01,5.874800e-01,-1.491400e-01,-3.204100e-02,1.127900e+01
-1.069500e+00,4.832500e-01,-1.492900e-01,-3.204100e-02,1.182000e+01
-1.021500e+00,4.736400e-01,-1.493100e-01,-3.204100e-02,1.198500e+01
-1.005700e+00,7.966700e-01,-1.488300e-01,-3.204100e-02,1.144700e+01
-1.053400e+00,7.726400e-01,-1.488700e-01,-3.204100e-02,1.105400e+01
-1.124100e+00,7.377500e-01,-1.489200e-01,-3.204100e-02,9.904400e+00
