0,0,-1.500000e-01,0,1.680700e+01
-4.092600e-02,2.093500e-02,-1.509800e-01,0,1.619500e+01
-7.312100e-02,6.513600e-02,-1.530400e-01,0,1.534700e+01
-1.091400e-02,1.341400e-01,-1.562700e-01,0,1.454300e+01
-3.274100e-03,1.373800e-01,-1.564200e-01,0,1.366400e+01
9.549300e-03,1.755300e-01,-1.582000e-01,0,1.305900e+01
5.456800e-01,6.666800e-01,-1.811500e-01,0,1.420600e+01
5.533200e-01,7.191100e-01,-1.836000e-01,0,1.588700e+01
5.598600e-01,7.411800e-01,-1.846300e-01,0,1.660300e+01
5.729600e-01,7.475400e-01,-1.849300e-01,0,1.644000e+01
6.013400e-01,7.321600e-01,-1.842100e-01,0,1.522600e+01
-7.235700e-01,6.445900e-01,-1.801200e-01,0,1.199700e+01
-1.012200e+00,5.818300e-01,-1.771900e-01,0,1.298300e+01
-9.724000e-01,5.549900e-01,-1.759300e-01,0,1.340300e+01
-9.691200e-01,3.887900e-01,-1.681700e-01,0,1.263400e+01
-1.016000e+00,7.616400e-01,-1.855900e-01,0,1.223800e+01
-1.042800e+00,7.793700e-01,-1.864200e-01,0,1.182900e+01
-1.091400e+00,8.063900e-01,-1.876800e-01,0,1.044500e+01
0,0,-1.500000e-01,3.204100e-02,1.581100e+01
-4.092600e-02,2.493600e-02,-1.511700e-01,3.204100e-02,1.518200e+01
-7.312100e-02,6.684400e-02,-1.531200e-01,3.204100e-02,1.434200e+01
-1.227800e-02,1.339000e-01,-1.562600e-01,3.204100e-02,1.354100e+01
-3.274100e-03,1.403600e-01,-1.565600e-01,3.204100e-02,1.258300e+01
9.549300e-03,1.783300e-01,-1.583300e-01,3.204100e-02,1.202900e+01
5.456800e-01,6.678100e-01,-1.812100e-01,3.204100e-02,1.329700e+01
5.533200e-01,7.193800e-01,-1.836200e-01,3.204100e-02,1.492800e+01
5.598600e-01,7.407700e-01,-1.846100e-01,3.204100e-02,1.564800e+01
5.729600e-01,7.440200e-01,-1.847700e-01,3.204100e-02,1.551600e+01
5.934200e-01,7.423300e-01,-1.846900e-01,3.204100e-02,1.440900e+01
6.466300e-01,7.526300e-01,-1.851700e-01,3.204100e-02,1.241300e+01
-7.142900e-01,6.703900e-01,-1.813300e-01,3.204100e-02,1.097200e+01
-1.002700e+00,6.027800e-01,-1.781700e-01,3.204100e-02,1.201600e+01
-9.724000e-01,5.661900e-01,-1.764600e-01,3.204100e-02,1.238000e+01
-9.489300e-01,5.402400e-01,-1.752400e-01,3.204100e-02,1.170600e+01
-9.953100e-01,7.422900e-01,-1.846900e-01,3.204100e-02,1.166600e+01
-1.042800e+00,7.250200e-01,-1.838800e-01,3.204100e-02,1.097700e+01
0,0,-1.500000e-01,6.408200e-02,1.006300e+01
-3.328600e-02,1.056700e-02,-1.504900e-01,6.408200e-02,9.935900e+00
5.675000e-01,7.087500e-01,-1.831200e-01,6.408200e-02,9.940200e+00
5.819600e-01,7.276500e-01,-1.840000e-01,6.408200e-02,1.109900e+01
6.188000e-01,7.411600e-01,-1.846300e-01,6.408200e-02,1.216000e+01
6.488100e-01,7.580900e-01,-1.854200e-01,6.408200e-02,1.263300e+01
6.711800e-01,7.881100e-01,-1.868300e-01,6.408200e-02,1.225200e+01
7.189300e-01,7.921800e-01,-1.870200e-01,6.408200e-02,1.087300e+01
-8.741700e-01,6.150000e-01,-1.787400e-01,6.408200e-02,1.057700e+01
-9.489300e-01,5.504300e-01,-1.757200e-01,6.408200e-02,1.029800e+01
5.462200e-01,7.244100e-01,-1.838500e-01,9.612300e-02,1.030800e+01
5.598600e-01,7.437300e-01,-1.847500e-01,9.612300e-02,1.133500e+01
5.806000e-01,7.647300e-01,-1.857300e-01,9.612300e-02,1.158500e+01
6.171600e-01,8.012600e-01,-1.874400e-01,9.612300e-02,1.119600e+01
4.338100e-01,6.002900e-01,-1.780500e-01,9.612300e-02,1.143300e+01
5.244000e-01,7.233600e-01,-1.838000e-01,9.612300e-02,1.147300e+01
5.937000e-01,7.681100e-01,-1.858900e-01,9.612300e-02,1.077700e+01
-8.741700e-01,6.772800e-01,-1.816500e-01,9.612300e-02,1.071600e+01
-9.287400e-01,6.687200e-01,-1.812500e-01,9.612300e-02,1.070000e+01
0,0,-1.500000e-01,1.281600e-01,9.514500e+00
5.451300e-01,7.486800e-01,-1.849800e-01,1.281600e-01,1.015000e+01
5.143000e-01,7.389100e-01,-1.845300e-01,1.281600e-01,1.008500e+01
5.320300e-01,7.495400e-01,-1.850200e-01,1.281600e-01,1.116100e+01
5.328500e-01,7.497900e-01,-1.850400e-01,1.281600e-01,1.093500e+01
-1.207300e+00,1.595700e+00,-2.245600e-01,-8.330700e-01,1.066200e+01
-1.211400e+00,1.604900e+00,-2.250000e-01,-8.330700e-01,1.065100e+01
-1.175100e+00,1.655800e+00,-2.273700e-01,-8.010300e-01,1.030300e+01
-1.211400e+00,1.638400e+00,-2.265600e-01,-8.010300e-01,1.040100e+01
-6.583000e+00,2.917700e+00,-2.863400e-01,-8.010300e-01,1.014000e+01
-6.557700e+00,3.183200e+00,-2.987500e-01,-8.010300e-01,1.017300e+01
-1.223400e+00,1.604100e+00,-2.249600e-01,-7.689800e-01,1.058500e+01
-1.260500e+00,1.627100e+00,-2.260300e-01,-7.689800e-01,1.082200e+01
-1.298200e+00,1.669000e+00,-2.279900e-01,-7.689800e-01,1.023000e+01
-6.386600e+00,3.505900e+00,-3.138300e-01,-7.689800e-01,1.046300e+01
-1.289200e+00,5.974100e+00,-4.291600e-01,-6.408200e-01,1.000100e+01
-1.344500e+00,5.997000e+00,-4.302300e-01,-6.408200e-01,1.034600e+01
-1.145900e+00,5.978700e+00,-4.293700e-01,-6.087800e-01,1.161100e+01
-1.248500e+00,5.991500e+00,-4.299700e-01,-6.087800e-01,1.217100e+01
-1.303900e+00,6.008400e+00,-4.307700e-01,-6.087800e-01,1.174700e+01
-1.359800e+00,6.034100e+00,-4.319700e-01,-6.087800e-01,1.040300e+01
-9.494800e-01,5.981100e+00,-4.294900e-01,-5.767400e-01,1.016100e+01
-1.145900e+00,6.000200e+00,-4.303800e-01,-5.767400e-01,1.207900e+01
-1.200500e+00,6.021200e+00,-4.313600e-01,-5.767400e-01,1.275100e+01
-1.255600e+00,6.041900e+00,-4.323300e-01,-5.767400e-01,1.238700e+01
-1.359800e+00,6.049300e+00,-4.326800e-01,-5.767400e-01,1.097300e+01
-1.098200e+00,5.985300e+00,-4.296800e-01,-5.447000e-01,1.063500e+01
-1.200500e+00,6.026400e+00,-4.316000e-01,-5.447000e-01,1.149000e+01
-1.303900e+00,6.041100e+00,-4.322900e-01,-5.447000e-01,1.123600e+01
-2.302500e+00,1.960400e+00,-2.416100e-01,-4.806200e-01,1.068200e+01
-2.377000e+00,1.924300e+00,-2.399200e-01,-4.806200e-01,1.140400e+01
-2.452500e+00,1.877900e+00,-2.377500e-01,-4.806200e-01,1.125100e+01
-2.553800e+00,1.760500e+00,-2.322700e-01,-4.806200e-01,1.054900e+01
-2.557300e+00,1.746700e+00,-2.316200e-01,-4.806200e-01,1.007400e+01
-2.326200e+00,1.947900e+00,-2.410200e-01,-4.485700e-01,1.114600e+01
-2.377000e+00,1.942000e+00,-2.407500e-01,-4.485700e-01,1.173100e+01
-2.428300e+00,1.935000e+00,-2.404200e-01,-4.485700e-01,1.149900e+01
-2.480100e+00,1.917900e+00,-2.396200e-01,-4.485700e-01,1.070100e+01
-2.507700e+00,1.890100e+00,-2.383200e-01,-4.485700e-01,1.022200e+01
-2.425000e+00,1.870700e+00,-2.374200e-01,-4.165300e-01,1.032700e+01
-2.428300e+00,1.860900e+00,-2.369600e-01,-4.165300e-01,1.001800e+01
0,0,-1.500000e-01,-1.602100e-01,9.705500e+00
4.125300e-01,5.968500e-01,-1.778900e-01,-1.602100e-01,1.020100e+01
4.965700e-01,7.013300e-01,-1.827700e-01,-1.602100e-01,1.150900e+01
6.013400e-01,7.694500e-01,-1.859600e-01,-1.602100e-01,1.202200e+01
3.274100e-01,2.102900e-01,-1.598300e-01,-1.602100e-01,1.144600e+01
4.990200e-01,7.526700e-01,-1.851700e-01,-1.602100e-01,1.139900e+01
5.587700e-01,7.726700e-01,-1.861100e-01,-1.602100e-01,1.138200e+01
5.762300e-01,8.438600e-01,-1.894300e-01,-1.602100e-01,1.031900e+01
0,0,-1.500000e-01,-1.281600e-01,9.508300e+00
5.320300e-01,6.235200e-01,-1.791400e-01,-1.281600e-01,9.513400e+00
5.304000e-01,6.913800e-01,-1.823100e-01,-1.281600e-01,1.158600e+01
5.576800e-01,7.212900e-01,-1.837000e-01,-1.281600e-01,1.275700e+01
5.934200e-01,7.549400e-01,-1.852800e-01,-1.281600e-01,1.292900e+01
6.793700e-01,7.927300e-01,-1.870400e-01,-1.281600e-01,1.211200e+01
4.990200e-01,6.726800e-01,-1.814300e-01,-1.281600e-01,1.159700e+01
5.849700e-01,7.358100e-01,-1.843800e-01,-1.281600e-01,1.143400e+01
0,0,-1.500000e-01,-9.612300e-02,9.623100e+00
5.249400e-01,6.699800e-01,-1.813100e-01,-9.612300e-02,1.027000e+01
5.377600e-01,7.502500e-01,-1.850600e-01,-9.612300e-02,1.144000e+01
5.576800e-01,7.141800e-01,-1.833700e-01,-9.612300e-02,1.281900e+01
5.776000e-01,7.410400e-01,-1.846300e-01,-9.612300e-02,1.330000e+01
5.975200e-01,7.918900e-01,-1.870000e-01,-9.612300e-02,1.279700e+01
6.089800e-01,8.635800e-01,-1.903500e-01,-9.612300e-02,1.158100e+01
6.548100e-01,8.993400e-01,-1.920200e-01,-9.612300e-02,1.079300e+01
8.103300e-01,7.519000e-01,-1.851400e-01,-9.612300e-02,1.029900e+01
4.360000e-01,5.736800e-01,-1.768100e-01,-9.612300e-02,1.020500e+01
0,0,-1.500000e-01,-6.408200e-02,1.084100e+01
4.752800e-01,5.299300e-01,-1.747600e-01,-6.408200e-02,1.047200e+01
5.083000e-01,6.749000e-01,-1.815400e-01,-6.408200e-02,1.142000e+01
5.500400e-01,7.192900e-01,-1.836100e-01,-6.408200e-02,1.256800e+01
5.696900e-01,7.594200e-01,-1.854900e-01,-6.408200e-02,1.303300e+01
5.811500e-01,7.966800e-01,-1.872300e-01,-6.408200e-02,1.272600e+01
5.582300e-01,8.192800e-01,-1.882800e-01,-6.408200e-02,1.179400e+01
5.413100e-01,8.257500e-01,-1.885900e-01,-6.408200e-02,1.158300e+01
5.582300e-01,8.504700e-01,-1.897400e-01,-6.408200e-02,1.145200e+01
6.215300e-01,9.114700e-01,-1.925900e-01,-6.408200e-02,1.108400e+01
7.066500e-01,9.614300e-01,-1.949300e-01,-6.408200e-02,1.035300e+01
0,0,-1.500000e-01,-3.204100e-02,1.578700e+01
-4.092600e-02,1.552100e-02,-1.507300e-01,-3.204100e-02,1.517000e+01
-7.312100e-02,6.444000e-02,-1.530100e-01,-3.204100e-02,1.432100e+01
-1.091400e-02,1.318800e-01,-1.561600e-01,-3.204100e-02,1.351300e+01
-3.274100e-03,1.312200e-01,-1.561300e-01,-3.204100e-02,1.265500e+01
9.549300e-03,1.721900e-01,-1.580500e-01,-3.204100e-02,1.204700e+01
5.456800e-01,6.650700e-01,-1.810800e-01,-3.204100e-02,1.311100e+01
5.533200e-01,7.193700e-01,-1.836200e-01,-3.204100e-02,1.480600e+01
5.598600e-01,7.417200e-01,-1.846600e-01,-3.204100e-02,1.550800e+01
5.729600e-01,7.429500e-01,-1.847200e-01,-3.204100e-02,1.532700e+01
5.855100e-01,7.160600e-01,-1.834600e-01,-3.204100e-02,1.405900e+01
4.420000e-01,7.758400e-01,-1.862500e-01,-3.204100e-02,1.216800e+01
5.849700e-01,8.426900e-01,-1.893800e-01,-3.204100e-02,1.149100e+01
5.852400e-01,8.784100e-01,-1.910500e-01,-3.204100e-02,1.161500e+01
5.937000e-01,9.765900e-01,-1.956300e-01,-3.204100e-02,1.128600e+01
-1.021800e+00,5.364800e-01,-1.750700e-01,-3.204100e-02,1.206300e+01
-9.822200e-01,5.551000e-01,-1.759400e-01,-3.204100e-02,1.240200e+01
-9.893100e-01,3.395200e-01,-1.658700e-01,-3.204100e-02,1.156600e+01
-1.036800e+00,7.731100e-01,-1.861300e-01,-3.204100e-02,1.085500e+01
-1.042800e+00,8.187200e-01,-1.882600e-01,-3.204100e-02,1.075000e+01
