0,0,-1.500000e-01,0,1.676700e+01
-7.202900e-02,6.815100e-02,-1.499900e-01,0,1.532300e+01
-1.364200e-02,1.290600e-01,-1.499700e-01,0,1.445200e+01
-3.274100e-03,1.323900e-01,-1.499700e-01,0,1.363500e+01
1.527900e-02,1.753700e-01,-1.499600e-01,0,1.298300e+01
2.592000e-01,1.959600e-01,-1.499600e-01,0,1.331400e+01
5.604100e-01,7.144100e-01,-1.498500e-01,0,1.479200e+01
5.746000e-01,7.416800e-01,-1.498400e-01,0,1.544700e+01
5.882400e-01,7.685100e-01,-1.498400e-01,0,1.528700e+01
6.013400e-01,8.036300e-01,-1.498300e-01,0,1.428900e+01
5.647800e-01,8.679200e-01,-1.498200e-01,0,1.271300e+01
-7.699500e-01,5.214500e-01,-1.498900e-01,0,1.178000e+01
-1.002700e+00,5.830000e-01,-1.498800e-01,0,1.256500e+01
-9.429300e-01,5.627100e-01,-1.498800e-01,0,1.323400e+01
-9.489300e-01,6.715400e-01,-1.498600e-01,0,1.272600e+01
-9.953100e-01,7.893200e-01,-1.498300e-01,0,1.250100e+01
-1.021500e+00,8.131600e-01,-1.498300e-01,0,1.185800e+01
-1.047700e+00,8.671300e-01,-1.498200e-01,0,1.036700e+01
0,0,-1.500000e-01,3.204100e-02,1.574900e+01
-4.174400e-02,7.660400e-03,-1.500000e-01,3.204100e-02,1.517200e+01
-7.202900e-02,6.983700e-02,-1.499900e-01,3.204100e-02,1.432300e+01
-1.364200e-02,1.295100e-01,-1.499700e-01,3.204100e-02,1.343800e+01
-3.274100e-03,1.308400e-01,-1.499700e-01,3.204100e-02,1.266200e+01
1.527900e-02,1.740800e-01,-1.499600e-01,3.204100e-02,1.198800e+01
2.523800e-01,1.994700e-01,-1.499600e-01,3.204100e-02,1.227700e+01
5.604100e-01,7.134000e-01,-1.498500e-01,3.204100e-02,1.381300e+01
5.746000e-01,7.375800e-01,-1.498500e-01,3.204100e-02,1.446800e+01
5.958800e-01,7.608300e-01,-1.498400e-01,3.204100e-02,1.425000e+01
6.013400e-01,7.979400e-01,-1.498300e-01,3.204100e-02,1.317700e+01
5.238500e-01,8.475400e-01,-1.498200e-01,3.204100e-02,1.233000e+01
-8.163300e-01,6.483000e-01,-1.498600e-01,3.204100e-02,1.055200e+01
-9.071900e-01,7.389600e-01,-1.498500e-01,3.204100e-02,1.221500e+01
-9.134600e-01,7.459500e-01,-1.498400e-01,3.204100e-02,1.302100e+01
-9.287400e-01,7.961200e-01,-1.498300e-01,3.204100e-02,1.265700e+01
-9.642100e-01,8.250100e-01,-1.498300e-01,3.204100e-02,1.155700e+01
-1.010900e+00,8.502200e-01,-1.498200e-01,3.204100e-02,1.052700e+01
0,0,-1.500000e-01,6.408200e-02,1.021200e+01
3.001200e-03,3.460600e-02,-1.499900e-01,6.408200e-02,9.967500e+00
4.261700e-01,5.423200e-01,-1.498900e-01,6.408200e-02,9.344100e+00
3.904300e-01,1.144900e-01,-1.499800e-01,6.408200e-02,1.133600e+01
4.430900e-01,1.884800e-01,-1.499600e-01,6.408200e-02,1.181000e+01
4.905600e-01,2.887500e-01,-1.499400e-01,6.408200e-02,1.138900e+01
5.156600e-01,4.193700e-01,-1.499100e-01,6.408200e-02,1.019200e+01
-7.514000e-01,6.883400e-01,-1.498600e-01,6.408200e-02,1.037700e+01
-8.116900e-01,8.361200e-01,-1.498200e-01,6.408200e-02,1.145400e+01
-8.643500e-01,9.124100e-01,-1.498100e-01,6.408200e-02,1.201500e+01
-9.186500e-01,8.817100e-01,-1.498200e-01,6.408200e-02,1.196100e+01
-9.642100e-01,8.084800e-01,-1.498300e-01,6.408200e-02,1.115100e+01
0,0,-1.500000e-01,9.612300e-02,1.035000e+01
0,3.410900e-02,-1.499900e-01,9.612300e-02,9.942600e+00
5.009300e-01,6.303700e-01,-1.498700e-01,9.612300e-02,1.084400e+01
5.347600e-01,7.469500e-01,-1.498400e-01,9.612300e-02,1.213500e+01
5.617700e-01,7.896500e-01,-1.498300e-01,9.612300e-02,1.242900e+01
5.893300e-01,8.282000e-01,-1.498300e-01,9.612300e-02,1.176500e+01
6.512600e-01,8.641200e-01,-1.498200e-01,9.612300e-02,1.014100e+01
-7.926000e-01,8.606100e-01,-1.498200e-01,9.612300e-02,1.045400e+01
-8.938200e-01,8.841100e-01,-1.498100e-01,9.612300e-02,1.118300e+01
-9.388400e-01,8.626200e-01,-1.498200e-01,9.612300e-02,1.135500e+01
-1.005700e+00,7.753300e-01,-1.498400e-01,9.612300e-02,1.056100e+01
0,0,-1.500000e-01,1.281600e-01,9.403500e+00
4.788300e-01,6.548600e-01,-1.498600e-01,1.281600e-01,1.119300e+01
5.194800e-01,7.253200e-01,-1.498500e-01,1.281600e-01,1.232300e+01
5.538600e-01,7.676700e-01,-1.498400e-01,1.281600e-01,1.258600e+01
5.893300e-01,8.026400e-01,-1.498300e-01,1.281600e-01,1.204300e+01
6.428100e-01,8.265700e-01,-1.498300e-01,1.281600e-01,1.061900e+01
0,0,-1.500000e-01,1.602100e-01,9.463100e+00
2.073600e-02,1.187000e-02,-1.500000e-01,1.602100e-01,9.316700e+00
4.752800e-01,2.384300e-01,-1.499500e-01,1.602100e-01,9.960500e+00
4.862000e-01,4.412200e-01,-1.499100e-01,1.602100e-01,1.044000e+01
4.812900e-01,5.553900e-01,-1.498800e-01,1.602100e-01,1.057800e+01
4.826500e-01,6.970800e-01,-1.498500e-01,1.602100e-01,9.860100e+00
6.302600e-01,8.051200e-01,-1.498300e-01,1.602100e-01,1.045200e+01
6.258900e-01,7.967500e-01,-1.498300e-01,1.602100e-01,1.009900e+01
1.529300e+00,1.380900e+00,-1.497100e-01,2.242900e-01,9.992800e+00
-2.437000e+00,6.657200e+00,-1.486100e-01,-9.932700e-01,1.014500e+01
-7.694000e-01,1.424000e+00,-1.497000e-01,-5.126600e-01,1.041400e+01
-7.857700e-01,1.455700e+00,-1.497000e-01,-5.126600e-01,1.064400e+01
0,0,-1.500000e-01,-4.806200e-01,9.425300e+00
-7.404800e-01,1.313800e+00,-1.497200e-01,-4.806200e-01,1.077200e+01
-7.437600e-01,1.391200e+00,-1.497100e-01,-4.806200e-01,1.222500e+01
-7.595800e-01,1.431700e+00,-1.497000e-01,-4.806200e-01,1.260800e+01
-7.754100e-01,1.459100e+00,-1.496900e-01,-4.806200e-01,1.186100e+01
0,0,-1.500000e-01,-4.485700e-01,9.452800e+00
-7.404800e-01,1.345800e+00,-1.497200e-01,-4.485700e-01,1.115600e+01
-7.437600e-01,1.392900e+00,-1.497100e-01,-4.485700e-01,1.246000e+01
-7.595800e-01,1.427300e+00,-1.497000e-01,-4.485700e-01,1.284100e+01
-7.754100e-01,1.458300e+00,-1.496900e-01,-4.485700e-01,1.220400e+01
-8.458000e-01,1.392400e+00,-1.497100e-01,-4.485700e-01,1.030700e+01
-7.530300e-01,1.361600e+00,-1.497100e-01,-4.165300e-01,1.024500e+01
-7.437600e-01,1.419600e+00,-1.497000e-01,-4.165300e-01,1.150800e+01
-7.464900e-01,1.454200e+00,-1.497000e-01,-4.165300e-01,1.184100e+01
-7.754100e-01,1.470300e+00,-1.496900e-01,-4.165300e-01,1.126000e+01
-8.185100e-01,1.478500e+00,-1.496900e-01,-4.165300e-01,9.943000e+00
-8.228800e-01,1.595400e+00,-1.496700e-01,-4.165300e-01,1.052100e+01
-8.676300e-01,1.608900e+00,-1.496600e-01,-4.165300e-01,1.050200e+01
-7.595800e-01,1.488200e+00,-1.496900e-01,-3.844900e-01,9.997300e+00
-7.653100e-01,1.574600e+00,-1.496700e-01,-3.844900e-01,1.008500e+01
-8.512600e-01,1.568900e+00,-1.496700e-01,-3.844900e-01,1.134300e+01
-8.965500e-01,1.574600e+00,-1.496700e-01,-3.844900e-01,1.160500e+01
-9.282000e-01,1.591200e+00,-1.496700e-01,-3.844900e-01,1.073400e+01
0,0,-1.500000e-01,-3.524500e-01,9.682300e+00
-3.301300e-02,1.126600e-02,-1.500000e-01,-3.524500e-01,9.383400e+00
-8.209700e-01,1.563300e+00,-1.496700e-01,-3.524500e-01,9.942700e+00
-8.796300e-01,1.567900e+00,-1.496700e-01,-3.524500e-01,1.116000e+01
-9.110100e-01,1.575500e+00,-1.496700e-01,-3.524500e-01,1.138200e+01
-9.134600e-01,1.596700e+00,-1.496700e-01,-3.524500e-01,1.068000e+01
0,0,-1.500000e-01,-6.408200e-02,1.056900e+01
-1.364200e-03,3.489600e-02,-1.499900e-01,-6.408200e-02,1.034700e+01
2.013500e-01,3.470300e-01,-1.499300e-01,-6.408200e-02,9.576600e+00
-2.073600e-02,6.588600e-01,-1.498600e-01,-6.408200e-02,9.526700e+00
5.063900e-01,6.818100e-01,-1.498600e-01,-6.408200e-02,1.026100e+01
5.156600e-01,7.361800e-01,-1.498500e-01,-6.408200e-02,1.021300e+01
-9.232800e-01,3.958500e-01,-1.499200e-01,-6.408200e-02,9.765800e+00
0,0,-1.500000e-01,-3.204100e-02,1.573700e+01
-7.202900e-02,6.574200e-02,-1.499900e-01,-3.204100e-02,1.429800e+01
-1.227800e-02,1.294100e-01,-1.499700e-01,-3.204100e-02,1.343100e+01
-3.274100e-03,1.322100e-01,-1.499700e-01,-3.204100e-02,1.257800e+01
1.336900e-02,1.739200e-01,-1.499600e-01,-3.204100e-02,1.192200e+01
2.592000e-01,2.061500e-01,-1.499600e-01,-3.204100e-02,1.234000e+01
5.604100e-01,7.142900e-01,-1.498500e-01,-3.204100e-02,1.380600e+01
5.746000e-01,7.407300e-01,-1.498400e-01,-3.204100e-02,1.446700e+01
5.806000e-01,7.705800e-01,-1.498400e-01,-3.204100e-02,1.435300e+01
5.855100e-01,8.058300e-01,-1.498300e-01,-3.204100e-02,1.346600e+01
5.647800e-01,8.590300e-01,-1.498200e-01,-3.204100e-02,1.198800e+01
-7.606700e-01,6.850200e-01,-1.498600e-01,-3.204100e-02,1.113200e+01
-1.012200e+00,5.465800e-01,-1.498900e-01,-3.204100e-02,1.180900e+01
-9.527500e-01,4.798800e-01,-1.499000e-01,-3.204100e-02,1.231700e+01
-9.590300e-01,4.137900e-01,-1.499100e-01,-3.204100e-02,1.156100e+01
-1.005700e+00,7.714500e-01,-1.498400e-01,-3.204100e-02,1.153100e+01
-1.021500e+00,7.946100e-01,-1.498300e-01,-3.204100e-02,1.105500e+01
-9.931300e-01,9.293600e-01,-1.498100e-01,-3.204100e-02,9.954300e+00
