0,0,-1.500000e-01,0,1.680600e+01
-4.092600e-02,2.033800e-02,-1.500100e-01,0,1.619000e+01
-7.312100e-02,6.501700e-02,-1.500400e-01,0,1.532000e+01
-1.227800e-02,1.340300e-01,-1.500800e-01,0,1.451900e+01
-4.911100e-03,1.348000e-01,-1.500800e-01,0,1.356000e+01
1.145900e-02,1.769800e-01,-1.501100e-01,0,1.300500e+01
5.456800e-01,6.649800e-01,-1.504200e-01,0,1.422800e+01
5.533200e-01,7.192100e-01,-1.504500e-01,0,1.589100e+01
5.598600e-01,7.423500e-01,-1.504700e-01,0,1.656700e+01
5.729600e-01,7.512500e-01,-1.504700e-01,0,1.637300e+01
5.776000e-01,7.594300e-01,-1.504800e-01,0,1.537100e+01
5.238500e-01,7.691300e-01,-1.504800e-01,0,1.441100e+01
5.413100e-01,7.748800e-01,-1.504900e-01,0,1.320900e+01
6.286200e-01,7.193000e-01,-1.504500e-01,0,1.175800e+01
6.212500e-01,7.971900e-01,-1.505000e-01,0,1.193900e+01
6.308000e-01,5.551000e-01,-1.503500e-01,0,1.203700e+01
-9.453800e-01,6.331800e-01,-1.504000e-01,0,1.348200e+01
-9.331100e-01,6.182500e-01,-1.503900e-01,0,1.393500e+01
-9.489300e-01,4.717100e-01,-1.503000e-01,0,1.286500e+01
-1.005700e+00,7.912200e-01,-1.505000e-01,0,1.185400e+01
-1.021500e+00,7.763200e-01,-1.504900e-01,0,1.190500e+01
-1.058600e+00,7.218400e-01,-1.504500e-01,0,1.069400e+01
0,0,-1.500000e-01,3.204100e-02,1.579800e+01
-4.092600e-02,2.504500e-02,-1.500200e-01,3.204100e-02,1.518400e+01
-7.312100e-02,6.626800e-02,-1.500400e-01,3.204100e-02,1.431200e+01
-1.227800e-02,1.349500e-01,-1.500800e-01,3.204100e-02,1.351000e+01
-4.911100e-03,1.398000e-01,-1.500900e-01,3.204100e-02,1.260200e+01
1.145900e-02,1.868300e-01,-1.501200e-01,3.204100e-02,1.202000e+01
5.456800e-01,6.657600e-01,-1.504200e-01,3.204100e-02,1.317100e+01
5.462200e-01,7.238100e-01,-1.504500e-01,3.204100e-02,1.478900e+01
5.525000e-01,7.422200e-01,-1.504700e-01,3.204100e-02,1.544300e+01
5.576800e-01,7.520700e-01,-1.504700e-01,3.204100e-02,1.521800e+01
5.222100e-01,7.634600e-01,-1.504800e-01,3.204100e-02,1.435600e+01
5.156600e-01,7.837200e-01,-1.504900e-01,3.204100e-02,1.370000e+01
5.582300e-01,8.058300e-01,-1.505100e-01,3.204100e-02,1.249300e+01
6.024300e-01,7.818300e-01,-1.504900e-01,3.204100e-02,1.146300e+01
6.302600e-01,8.254800e-01,-1.505200e-01,3.204100e-02,1.155600e+01
6.864600e-01,8.187600e-01,-1.505100e-01,3.204100e-02,1.122700e+01
-9.262900e-01,6.858900e-01,-1.504300e-01,3.204100e-02,1.211700e+01
-9.429300e-01,5.953800e-01,-1.503700e-01,3.204100e-02,1.260700e+01
-9.489300e-01,5.837000e-01,-1.503700e-01,3.204100e-02,1.192100e+01
-9.538400e-01,8.290200e-01,-1.505200e-01,3.204100e-02,1.145700e+01
-9.789400e-01,8.412800e-01,-1.505300e-01,3.204100e-02,1.090200e+01
0,0,-1.500000e-01,6.408200e-02,9.998200e+00
-3.001200e-03,3.357800e-02,-1.500200e-01,6.408200e-02,9.314800e+00
-2.111800e-01,5.334100e-01,-1.503400e-01,6.408200e-02,9.285100e+00
5.320300e-01,7.254700e-01,-1.504600e-01,6.408200e-02,1.102100e+01
5.451300e-01,7.493200e-01,-1.504700e-01,6.408200e-02,1.248600e+01
5.424000e-01,7.223400e-01,-1.504500e-01,6.408200e-02,1.327100e+01
5.380400e-01,6.923400e-01,-1.504400e-01,6.408200e-02,1.329900e+01
5.156600e-01,6.918900e-01,-1.504300e-01,6.408200e-02,1.236000e+01
4.567300e-01,7.602500e-01,-1.504800e-01,6.408200e-02,1.070300e+01
5.937000e-01,8.311000e-01,-1.505200e-01,6.408200e-02,1.075600e+01
6.212500e-01,8.744600e-01,-1.505500e-01,6.408200e-02,1.100900e+01
6.493600e-01,9.816900e-01,-1.506200e-01,6.408200e-02,1.061500e+01
-9.262900e-01,7.096800e-01,-1.504500e-01,6.408200e-02,1.168800e+01
-9.134600e-01,7.804900e-01,-1.504900e-01,6.408200e-02,1.236200e+01
-8.984600e-01,8.402800e-01,-1.505300e-01,6.408200e-02,1.220100e+01
-9.020000e-01,8.723600e-01,-1.505500e-01,6.408200e-02,1.119200e+01
0,0,-1.500000e-01,9.612300e-02,9.824300e+00
4.199000e-01,3.584700e-01,-1.502300e-01,9.612300e-02,1.018400e+01
4.507300e-01,5.322200e-01,-1.503300e-01,9.612300e-02,1.128900e+01
4.905600e-01,6.251300e-01,-1.503900e-01,9.612300e-02,1.160000e+01
5.320300e-01,6.548500e-01,-1.504100e-01,9.612300e-02,1.099700e+01
-8.880900e-01,7.405500e-01,-1.504700e-01,9.612300e-02,1.032300e+01
-8.938200e-01,7.355400e-01,-1.504600e-01,9.612300e-02,1.128900e+01
-8.984600e-01,7.625700e-01,-1.504800e-01,9.612300e-02,1.113600e+01
-8.916400e-01,8.507400e-01,-1.505300e-01,9.612300e-02,1.001200e+01
-3.334100e+00,7.484300e+00,-1.547000e-01,-1.153500e+00,9.996600e+00
-3.283900e+00,7.558700e+00,-1.547500e-01,-1.153500e+00,1.025100e+01
-3.590600e+00,7.379000e+00,-1.546400e-01,-1.121400e+00,1.100400e+01
-3.541400e+00,7.437200e+00,-1.546700e-01,-1.121400e+00,1.121000e+01
-3.491800e+00,7.464500e+00,-1.546900e-01,-1.121400e+00,1.037400e+01
-3.526400e+00,7.406100e+00,-1.546500e-01,-1.089400e+00,1.083900e+01
-3.541400e+00,7.441700e+00,-1.546800e-01,-1.089400e+00,1.088700e+01
-3.491800e+00,7.503500e+00,-1.547100e-01,-1.089400e+00,9.927500e+00
-2.095400e+00,1.834600e+00,-1.511500e-01,-8.651100e-01,1.024500e+01
-2.884700e+00,1.552300e+00,-1.509800e-01,-8.651100e-01,1.012100e+01
-2.994700e+00,1.395100e+00,-1.508800e-01,-8.651100e-01,1.022500e+01
-2.652000e+00,3.229200e+00,-1.520300e-01,-8.651100e-01,1.049300e+01
-6.526300e-01,1.674500e+00,-1.510500e-01,-8.330700e-01,1.016900e+01
-7.374800e-01,1.664600e+00,-1.510500e-01,-8.330700e-01,1.006800e+01
-2.095400e+00,1.840500e+00,-1.511600e-01,-8.330700e-01,1.077000e+01
-2.232100e+00,1.730900e+00,-1.510900e-01,-8.330700e-01,1.011200e+01
-2.652000e+00,3.244200e+00,-1.520400e-01,-8.330700e-01,1.007700e+01
-6.526300e-01,1.642500e+00,-1.510300e-01,-8.010300e-01,1.075400e+01
-6.941000e-01,1.659600e+00,-1.510400e-01,-8.010300e-01,1.068700e+01
-6.662700e-01,1.088300e+00,-1.506800e-01,-7.689800e-01,9.715000e+00
-6.668200e-01,1.643500e+00,-1.510300e-01,-7.689800e-01,9.912900e+00
-6.796400e-01,1.676900e+00,-1.510500e-01,-7.689800e-01,1.010500e+01
-9.175600e-01,1.734300e+00,-1.510900e-01,-7.689800e-01,1.017300e+01
-9.020000e-01,1.798000e+00,-1.511300e-01,-7.689800e-01,1.071200e+01
-9.175600e-01,1.829400e+00,-1.511500e-01,-7.689800e-01,1.037700e+01
-6.580900e-01,1.025900e+00,-1.506400e-01,-7.369400e-01,9.771800e+00
-6.965600e-01,1.051800e+00,-1.506600e-01,-7.369400e-01,1.027000e+01
-7.568500e-01,1.066700e+00,-1.506700e-01,-7.369400e-01,1.008800e+01
-7.975100e-01,1.014400e+00,-1.506400e-01,-7.049000e-01,1.012700e+01
-8.709000e-01,9.885300e-01,-1.506200e-01,-7.049000e-01,1.046900e+01
-9.363800e-01,9.806100e-01,-1.506200e-01,-7.049000e-01,1.010100e+01
-6.242500e-01,1.663800e+00,-1.510500e-01,-7.049000e-01,1.104100e+01
-6.362600e-01,1.692700e+00,-1.510600e-01,-7.049000e-01,1.136300e+01
-6.777300e-01,1.708300e+00,-1.510700e-01,-7.049000e-01,1.069100e+01
-1.110500e+00,1.366200e+00,-1.508600e-01,-7.049000e-01,9.964600e+00
-7.975100e-01,9.956000e-01,-1.506300e-01,-6.728600e-01,1.049100e+01
-8.501600e-01,9.871200e-01,-1.506200e-01,-6.728600e-01,1.087500e+01
-8.938200e-01,9.984500e-01,-1.506300e-01,-6.728600e-01,1.041800e+01
-5.958800e-01,1.650800e+00,-1.510400e-01,-6.728600e-01,1.135000e+01
-6.073400e-01,1.697100e+00,-1.510700e-01,-6.728600e-01,1.168600e+01
-6.630000e-01,1.717900e+00,-1.510800e-01,-6.728600e-01,1.104900e+01
-1.125500e+00,1.411800e+00,-1.508900e-01,-6.728600e-01,1.066700e+01
-1.161200e+00,1.490100e+00,-1.509400e-01,-6.728600e-01,1.054100e+01
-8.177000e-01,9.953900e-01,-1.506300e-01,-6.408200e-01,9.926700e+00
-8.812700e-01,9.771000e-01,-1.506100e-01,-6.408200e-01,1.030300e+01
-9.257400e-01,9.809600e-01,-1.506200e-01,-6.408200e-01,9.856400e+00
-5.816900e-01,1.611400e+00,-1.510100e-01,-6.408200e-01,1.065800e+01
-6.218000e-01,1.674600e+00,-1.510500e-01,-6.408200e-01,1.075700e+01
-7.219300e-01,1.691000e+00,-1.510600e-01,-6.408200e-01,9.996000e+00
0,0,-1.500000e-01,-5.447000e-01,8.947500e+00
-2.689100e+00,2.838500e+00,-1.517800e-01,-5.447000e-01,1.052600e+01
-2.743900e+00,2.836000e+00,-1.517800e-01,-5.447000e-01,1.003400e+01
4.256300e-02,5.053100e-01,-1.503200e-01,-5.126600e-01,1.043000e+01
3.683300e-02,6.385500e-01,-1.504000e-01,-5.126600e-01,1.074700e+01
4.583700e-02,7.581400e-01,-1.504800e-01,-5.126600e-01,9.878700e+00
-2.513700e+00,2.943100e+00,-1.518500e-01,-5.126600e-01,1.095500e+01
-2.536300e+00,2.972500e+00,-1.518700e-01,-5.126600e-01,1.150300e+01
-2.589800e+00,2.977300e+00,-1.518700e-01,-5.126600e-01,1.109400e+01
5.675000e-02,5.699000e-01,-1.503600e-01,-4.806200e-01,1.067000e+01
4.420000e-02,6.671400e-01,-1.504200e-01,-4.806200e-01,1.095300e+01
2.291800e-02,7.690800e-01,-1.504800e-01,-4.806200e-01,9.944900e+00
-2.431000e+00,2.883800e+00,-1.518100e-01,-4.806200e-01,1.034900e+01
-2.483400e+00,2.942100e+00,-1.518500e-01,-4.806200e-01,1.177600e+01
-2.505700e+00,2.986900e+00,-1.518800e-01,-4.806200e-01,1.218100e+01
-2.528100e+00,3.024900e+00,-1.519000e-01,-4.806200e-01,1.161400e+01
-2.581600e+00,3.023800e+00,-1.519000e-01,-4.806200e-01,1.004700e+01
6.384400e-02,5.093600e-01,-1.503200e-01,-4.485700e-01,9.738700e+00
5.893300e-02,6.584200e-01,-1.504100e-01,-4.485700e-01,1.001100e+01
-2.280900e+00,2.860900e+00,-1.518000e-01,-4.485700e-01,9.999800e+00
-2.453100e+00,2.970300e+00,-1.518700e-01,-4.485700e-01,1.120700e+01
-2.505700e+00,2.997600e+00,-1.518800e-01,-4.485700e-01,1.162800e+01
-2.559000e+00,3.004100e+00,-1.518900e-01,-4.485700e-01,1.097200e+01
-2.597400e+00,2.908600e+00,-1.518300e-01,-4.165300e-01,1.045900e+01
-2.620600e+00,2.938700e+00,-1.518500e-01,-4.165300e-01,1.010700e+01
4.518200e-01,4.663000e-01,-1.502900e-01,-3.524500e-01,9.737800e+00
4.911100e-01,4.349300e-01,-1.502700e-01,-3.524500e-01,9.922600e+00
-1.182500e+00,6.776800e+00,-1.542600e-01,-3.524500e-01,1.071900e+01
-1.296500e+00,6.791800e+00,-1.542700e-01,-3.524500e-01,1.126600e+01
-1.466000e+00,6.793300e+00,-1.542700e-01,-3.524500e-01,1.090400e+01
-1.296500e+00,6.787300e+00,-1.542600e-01,-3.204100e-01,1.050900e+01
-1.628800e+00,6.742800e+00,-1.542400e-01,-3.204100e-01,1.029300e+01
9.931300e-02,5.751100e-01,-1.503600e-01,-1.602100e-01,9.784600e+00
4.747400e-01,7.497900e-01,-1.504700e-01,-1.602100e-01,1.087200e+01
4.747400e-01,7.486700e-01,-1.504700e-01,-1.602100e-01,1.113400e+01
4.905600e-01,8.126500e-01,-1.505100e-01,-1.602100e-01,1.042500e+01
4.583700e-01,8.140400e-01,-1.505100e-01,-1.281600e-01,1.048500e+01
4.905600e-01,7.754800e-01,-1.504900e-01,-1.281600e-01,1.207300e+01
4.992900e-01,7.571600e-01,-1.504800e-01,-1.281600e-01,1.253700e+01
5.159400e-01,7.701200e-01,-1.504800e-01,-1.281600e-01,1.186800e+01
-6.373500e-01,7.703400e-01,-1.504800e-01,-1.281600e-01,1.018800e+01
0,0,-1.500000e-01,-9.612300e-02,9.561600e+00
-1.364200e-03,3.489600e-02,-1.500200e-01,-9.612300e-02,9.524300e+00
4.081700e-01,5.172600e-01,-1.503300e-01,-9.612300e-02,9.382700e+00
4.329900e-01,5.428400e-01,-1.503400e-01,-9.612300e-02,9.562900e+00
3.830600e-01,2.179000e-01,-1.501400e-01,-9.612300e-02,1.137500e+01
4.984800e-01,7.828900e-01,-1.504900e-01,-9.612300e-02,1.293100e+01
5.074800e-01,7.562000e-01,-1.504800e-01,-9.612300e-02,1.353600e+01
5.159400e-01,7.690400e-01,-1.504800e-01,-9.612300e-02,1.295000e+01
5.151200e-01,7.914000e-01,-1.505000e-01,-9.612300e-02,1.121800e+01
0,0,-1.500000e-01,-6.408200e-02,9.681700e+00
2.128100e-02,5.858100e-02,-1.500400e-01,-6.408200e-02,9.442000e+00
3.274100e-02,8.563400e-02,-1.500500e-01,-6.408200e-02,9.309500e+00
3.265900e-01,3.783400e-01,-1.502400e-01,-6.408200e-02,9.390500e+00
7.093800e-01,5.472400e-01,-1.503400e-01,-6.408200e-02,1.069900e+01
7.219300e-01,5.852900e-01,-1.503700e-01,-6.408200e-02,1.221600e+01
4.668300e-01,7.308900e-01,-1.504600e-01,-6.408200e-02,1.359400e+01
4.911100e-01,7.383600e-01,-1.504600e-01,-6.408200e-02,1.413100e+01
5.074800e-01,7.600900e-01,-1.504800e-01,-6.408200e-02,1.345000e+01
5.063900e-01,8.150400e-01,-1.505100e-01,-6.408200e-02,1.151600e+01
-8.938200e-01,6.576100e-01,-1.504100e-01,-6.408200e-02,9.940000e+00
0,0,-1.500000e-01,-3.204100e-02,1.578400e+01
-4.092600e-02,1.589700e-02,-1.500100e-01,-3.204100e-02,1.516000e+01
-7.202900e-02,6.828600e-02,-1.500400e-01,-3.204100e-02,1.429700e+01
-1.227800e-02,1.332900e-01,-1.500800e-01,-3.204100e-02,1.347300e+01
-3.274100e-03,1.353000e-01,-1.500900e-01,-3.204100e-02,1.253700e+01
1.145900e-02,1.770700e-01,-1.501100e-01,-3.204100e-02,1.195000e+01
5.525000e-01,6.582300e-01,-1.504100e-01,-3.204100e-02,1.326300e+01
5.533200e-01,7.196700e-01,-1.504500e-01,-3.204100e-02,1.493700e+01
5.598600e-01,7.464600e-01,-1.504700e-01,-3.204100e-02,1.557300e+01
5.653200e-01,7.532200e-01,-1.504700e-01,-3.204100e-02,1.536500e+01
5.301200e-01,7.417100e-01,-1.504700e-01,-3.204100e-02,1.482400e+01
4.992900e-01,7.414000e-01,-1.504700e-01,-3.204100e-02,1.451600e+01
5.074800e-01,7.632200e-01,-1.504800e-01,-3.204100e-02,1.358800e+01
6.302600e-01,8.278100e-01,-1.505200e-01,-3.204100e-02,1.103100e+01
6.215300e-01,4.083100e-01,-1.502600e-01,-3.204100e-02,1.139600e+01
-9.453800e-01,5.520800e-01,-1.503500e-01,-3.204100e-02,1.223100e+01
-9.232800e-01,5.545900e-01,-1.503500e-01,-3.204100e-02,1.274000e+01
-9.489300e-01,4.345100e-01,-1.502700e-01,-3.204100e-02,1.178700e+01
-1.005700e+00,7.531800e-01,-1.504700e-01,-3.204100e-02,1.115400e+01
-1.010900e+00,7.966400e-01,-1.505000e-01,-3.204100e-02,1.104200e+01
-1.047700e+00,7.956900e-01,-1.505000e-01,-3.204100e-02,9.954400e+00
