0,0,-1.500000e-01,0,1.681500e+01
-4.092600e-02,2.090600e-02,-1.514100e-01,0,1.620000e+01
-7.312100e-02,6.546600e-02,-1.544200e-01,0,1.535500e+01
-1.091400e-02,1.336900e-01,-1.590300e-01,0,1.454500e+01
-4.911100e-03,1.368600e-01,-1.592400e-01,0,1.368200e+01
9.549300e-03,1.771000e-01,-1.619600e-01,0,1.305200e+01
5.525000e-01,6.552900e-01,-1.942400e-01,0,1.422400e+01
5.533200e-01,7.193000e-01,-1.985600e-01,0,1.591800e+01
5.672300e-01,7.374300e-01,-1.997800e-01,0,1.661700e+01
5.806000e-01,7.451800e-01,-2.003100e-01,0,1.639700e+01
6.013400e-01,7.295800e-01,-1.992500e-01,0,1.512900e+01
-7.142900e-01,4.374500e-01,-1.795300e-01,0,1.215900e+01
-1.021800e+00,5.388700e-01,-1.863800e-01,0,1.265900e+01
-9.625700e-01,5.703600e-01,-1.885100e-01,0,1.348300e+01
-9.691200e-01,5.119500e-01,-1.845600e-01,0,1.292500e+01
-1.016000e+00,7.716500e-01,-2.020900e-01,0,1.213400e+01
-1.032100e+00,8.098700e-01,-2.046700e-01,0,1.184400e+01
-1.058600e+00,8.643000e-01,-2.083500e-01,0,1.060400e+01
0,0,-1.500000e-01,3.204100e-02,1.581600e+01
-4.092600e-02,2.556700e-02,-1.517300e-01,3.204100e-02,1.519400e+01
-7.312100e-02,6.823800e-02,-1.546100e-01,3.204100e-02,1.434400e+01
-1.091400e-02,1.361100e-01,-1.591900e-01,3.204100e-02,1.352800e+01
-4.911100e-03,1.400600e-01,-1.594600e-01,3.204100e-02,1.269600e+01
9.549300e-03,1.754100e-01,-1.618400e-01,3.204100e-02,1.207300e+01
5.456800e-01,6.539500e-01,-1.941500e-01,3.204100e-02,1.328100e+01
5.533200e-01,7.192600e-01,-1.985600e-01,3.204100e-02,1.501200e+01
5.598600e-01,7.396100e-01,-1.999300e-01,3.204100e-02,1.576900e+01
5.729600e-01,7.420300e-01,-2.001000e-01,3.204100e-02,1.564000e+01
5.855100e-01,7.236200e-01,-1.988500e-01,3.204100e-02,1.455000e+01
5.811500e-01,6.338700e-01,-1.927900e-01,3.204100e-02,1.250800e+01
-7.421200e-01,2.195600e-01,-1.648200e-01,3.204100e-02,1.083000e+01
-1.079100e+00,3.921500e-01,-1.764700e-01,3.204100e-02,1.085000e+01
-9.625700e-01,5.165300e-01,-1.848700e-01,3.204100e-02,1.185100e+01
-9.691200e-01,4.913800e-01,-1.831700e-01,3.204100e-02,1.141400e+01
-1.026400e+00,8.103400e-01,-2.047100e-01,3.204100e-02,1.057000e+01
-1.053400e+00,7.921400e-01,-2.034800e-01,3.204100e-02,1.018800e+01
0,0,-1.500000e-01,6.408200e-02,9.826000e+00
5.107500e-01,7.501500e-01,-2.006400e-01,6.408200e-02,1.078400e+01
5.377600e-01,7.453200e-01,-2.003200e-01,6.408200e-02,1.227400e+01
5.576800e-01,7.464800e-01,-2.004000e-01,6.408200e-02,1.333500e+01
5.776000e-01,7.505100e-01,-2.006700e-01,6.408200e-02,1.338900e+01
5.893300e-01,7.666700e-01,-2.017600e-01,6.408200e-02,1.219000e+01
-8.498900e-01,8.158200e-01,-2.050800e-01,6.408200e-02,9.881600e+00
-8.840000e-01,7.564800e-01,-2.010700e-01,6.408200e-02,1.084900e+01
-9.287400e-01,6.820200e-01,-1.960400e-01,6.408200e-02,1.093200e+01
-9.745800e-01,5.124000e-01,-1.845900e-01,6.408200e-02,1.015100e+01
0,0,-1.500000e-01,9.612300e-02,9.463600e+00
5.604100e-01,7.072000e-01,-1.977400e-01,9.612300e-02,9.931000e+00
5.598600e-01,7.565900e-01,-2.010800e-01,9.612300e-02,1.093700e+01
5.729600e-01,7.714900e-01,-2.020800e-01,9.612300e-02,1.158500e+01
5.776000e-01,8.025800e-01,-2.041800e-01,9.612300e-02,1.156200e+01
5.893300e-01,8.506900e-01,-2.074300e-01,9.612300e-02,1.104900e+01
6.343500e-01,8.055600e-01,-2.043800e-01,9.612300e-02,1.111900e+01
6.635400e-01,8.045800e-01,-2.043200e-01,9.612300e-02,1.047700e+01
-8.403400e-01,7.728700e-01,-2.021800e-01,9.612300e-02,1.068500e+01
-8.840000e-01,7.544100e-01,-2.009300e-01,9.612300e-02,1.131100e+01
-9.186500e-01,7.381700e-01,-1.998300e-01,9.612300e-02,1.102300e+01
5.672300e-01,7.501800e-01,-2.006500e-01,1.281600e-01,1.021900e+01
5.729600e-01,7.696300e-01,-2.019600e-01,1.281600e-01,1.062500e+01
5.855100e-01,7.628800e-01,-2.015000e-01,1.281600e-01,1.110700e+01
6.138900e-01,7.797900e-01,-2.026400e-01,1.281600e-01,1.101400e+01
6.343500e-01,8.100500e-01,-2.046900e-01,1.281600e-01,1.075600e+01
6.460800e-01,7.891700e-01,-2.032800e-01,1.281600e-01,1.001700e+01
-1.836500e+00,4.028500e+00,-4.219700e-01,-1.634100e+00,1.095800e+01
-1.885900e+00,4.051400e+00,-4.235100e-01,-1.634100e+00,1.111300e+01
-1.865400e+00,4.100600e+00,-4.268300e-01,-1.634100e+00,1.018900e+01
-1.732500e+00,4.082000e+00,-4.255800e-01,-1.602100e+00,1.048800e+01
-1.850900e+00,4.068300e+00,-4.246500e-01,-1.602100e+00,1.096800e+01
-1.865400e+00,4.100200e+00,-4.268100e-01,-1.602100e+00,1.021500e+01
-1.959500e+00,3.939400e+00,-4.159500e-01,-1.570000e+00,1.036600e+01
-3.417300e+00,4.694600e+00,-4.669400e-01,-1.570000e+00,1.012100e+01
-3.483600e+00,4.713600e+00,-4.682200e-01,-1.570000e+00,1.025100e+01
-1.959500e+00,3.931000e+00,-4.153800e-01,-1.538000e+00,1.035000e+01
-2.079000e+00,3.913500e+00,-4.142000e-01,-1.538000e+00,1.029700e+01
-3.599600e+00,4.562800e+00,-4.580400e-01,-1.538000e+00,9.913900e+00
-3.529400e+00,4.650400e+00,-4.639500e-01,-1.538000e+00,1.042700e+01
-3.550400e+00,4.686100e+00,-4.663600e-01,-1.538000e+00,9.990300e+00
-2.062700e+00,3.851200e+00,-4.100000e-01,-1.505900e+00,1.008200e+01
-2.079000e+00,3.897400e+00,-4.131100e-01,-1.505900e+00,1.087300e+01
-2.025600e+00,3.966000e+00,-4.177500e-01,-1.505900e+00,1.081600e+01
-1.935800e+00,4.065400e+00,-4.244600e-01,-1.505900e+00,1.003200e+01
-4.441800e-01,1.169700e+00,-2.289700e-01,-1.473900e+00,1.027200e+01
-4.769200e-01,1.191300e+00,-2.304300e-01,-1.473900e+00,1.017000e+01
-2.079000e+00,3.894200e+00,-4.129000e-01,-1.473900e+00,1.071100e+01
-2.025600e+00,3.960600e+00,-4.173800e-01,-1.473900e+00,1.076800e+01
-2.006200e+00,4.022800e+00,-4.215800e-01,-1.473900e+00,1.020200e+01
-4.321800e-01,1.115900e+00,-2.253400e-01,-1.441800e+00,1.046300e+01
-4.542800e-01,1.151200e+00,-2.277200e-01,-1.441800e+00,1.095000e+01
-4.872900e-01,1.183400e+00,-2.298900e-01,-1.441800e+00,1.065100e+01
-1.836500e+00,4.024400e+00,-4.216900e-01,-1.441800e+00,1.047100e+01
-1.920800e+00,4.005600e+00,-4.204200e-01,-1.441800e+00,1.055700e+01
-4.420000e-01,1.124000e+00,-2.258800e-01,-1.409800e+00,1.011600e+01
-4.542800e-01,1.150200e+00,-2.276500e-01,-1.409800e+00,1.051900e+01
-4.976600e-01,1.186200e+00,-2.300800e-01,-1.409800e+00,1.009700e+01
-4.293900e+00,4.726200e+00,-4.690700e-01,-1.409800e+00,1.003900e+01
-4.321800e-01,1.108200e+00,-2.248100e-01,-1.377800e+00,9.801400e+00
-4.340900e-01,1.160100e+00,-2.283200e-01,-1.377800e+00,1.020300e+01
-4.354500e-01,1.222700e+00,-2.325500e-01,-1.377800e+00,9.691000e+00
-1.409500e+00,4.167900e+00,-4.313700e-01,-1.025300e+00,1.046600e+01
-1.353300e+00,4.097500e+00,-4.266300e-01,-9.932700e-01,1.153100e+01
-1.398300e+00,4.113400e+00,-4.276900e-01,-9.932700e-01,1.250300e+01
-1.443900e+00,4.130400e+00,-4.288500e-01,-9.932700e-01,1.247000e+01
-1.524600e+00,4.131000e+00,-4.288900e-01,-9.932700e-01,1.151200e+01
-1.319400e+00,4.110100e+00,-4.274800e-01,-9.612300e-01,1.162900e+01
-1.398300e+00,4.111800e+00,-4.275900e-01,-9.612300e-01,1.248000e+01
-1.443900e+00,4.121400e+00,-4.282400e-01,-9.612300e-01,1.236200e+01
-1.524600e+00,4.098100e+00,-4.266600e-01,-9.612300e-01,1.122200e+01
-1.398300e+00,4.122400e+00,-4.283100e-01,-9.291900e-01,1.031700e+01
-1.409500e+00,4.152400e+00,-4.303300e-01,-9.291900e-01,1.010400e+01
4.583700e-01,4.028300e-01,-1.772000e-01,-5.126600e-01,9.945300e+00
4.774700e-01,4.959700e-01,-1.834800e-01,-5.126600e-01,1.071700e+01
4.965700e-01,5.357700e-01,-1.861700e-01,-5.126600e-01,1.097000e+01
5.156600e-01,5.782000e-01,-1.890300e-01,-5.126600e-01,1.066700e+01
5.194800e-01,6.324400e-01,-1.927000e-01,-5.126600e-01,9.884100e+00
4.387200e-01,4.210100e-01,-1.784200e-01,-4.806200e-01,9.985400e+00
4.638300e-01,5.393200e-01,-1.864100e-01,-4.806200e-01,1.066100e+01
4.965700e-01,5.808100e-01,-1.892100e-01,-4.806200e-01,1.109400e+01
5.304000e-01,5.986300e-01,-1.904100e-01,-4.806200e-01,1.118200e+01
5.500400e-01,6.111900e-01,-1.912600e-01,-4.806200e-01,1.071800e+01
4.894700e-01,4.974200e-01,-1.835800e-01,-2.242900e-01,9.548800e+00
5.042100e-01,5.009100e-01,-1.838200e-01,-2.242900e-01,1.097300e+01
5.252100e-01,5.078900e-01,-1.842900e-01,-2.242900e-01,1.147000e+01
5.604100e-01,5.397100e-01,-1.864400e-01,-2.242900e-01,1.135300e+01
6.188000e-01,5.994600e-01,-1.904700e-01,-2.242900e-01,1.075400e+01
3.437800e-01,3.381300e-01,-1.728300e-01,-2.242900e-01,1.036400e+01
4.035300e-01,6.935100e-01,-1.968200e-01,-2.242900e-01,1.048600e+01
5.484000e-01,8.554400e-01,-2.077500e-01,-2.242900e-01,1.065000e+01
5.836000e-01,8.712900e-01,-2.088200e-01,-2.242900e-01,1.047000e+01
5.852400e-01,7.495700e-01,-2.006000e-01,-2.242900e-01,9.833500e+00
4.706500e-01,4.412800e-01,-1.797900e-01,-1.922500e-01,9.833600e+00
4.911100e-01,5.102700e-01,-1.844500e-01,-1.922500e-01,1.087300e+01
5.047500e-01,5.516400e-01,-1.872400e-01,-1.922500e-01,1.144000e+01
5.178500e-01,6.105200e-01,-1.912200e-01,-1.922500e-01,1.140400e+01
4.567300e-01,6.244800e-01,-1.921600e-01,-1.922500e-01,1.088600e+01
4.278100e-01,6.032800e-01,-1.907300e-01,-1.922500e-01,1.126500e+01
4.510000e-01,6.976100e-01,-1.971000e-01,-1.922500e-01,1.085900e+01
5.762300e-01,8.453300e-01,-2.070700e-01,-1.922500e-01,9.856700e+00
0,0,-1.500000e-01,-9.612300e-02,9.452100e+00
4.455400e-01,5.578000e-01,-1.876600e-01,-9.612300e-02,9.547200e+00
4.501800e-01,5.462600e-01,-1.868800e-01,-9.612300e-02,9.668900e+00
4.681900e-01,6.190600e-01,-1.917900e-01,-9.612300e-02,1.064200e+01
4.935600e-01,6.806200e-01,-1.959500e-01,-9.612300e-02,1.126500e+01
5.347600e-01,7.112300e-01,-1.980200e-01,-9.612300e-02,1.183400e+01
5.696900e-01,7.157300e-01,-1.983200e-01,-9.612300e-02,1.180700e+01
5.647800e-01,5.528900e-01,-1.873300e-01,-9.612300e-02,1.120800e+01
5.074800e-01,5.870000e-01,-1.896300e-01,-9.612300e-02,1.072000e+01
0,0,-1.500000e-01,-6.408200e-02,9.866100e+00
-3.164900e-02,1.300900e-02,-1.508800e-01,-6.408200e-02,9.926000e+00
3.901600e-01,5.672600e-01,-1.883000e-01,-6.408200e-02,9.517000e+00
4.204400e-01,5.456900e-01,-1.868400e-01,-6.408200e-02,1.004800e+01
4.452700e-01,5.631100e-01,-1.880200e-01,-6.408200e-02,1.023600e+01
4.024400e-01,6.088300e-01,-1.911000e-01,-6.408200e-02,9.887800e+00
5.391300e-01,7.208100e-01,-1.986600e-01,-6.408200e-02,1.069400e+01
5.304000e-01,7.320000e-01,-1.994200e-01,-6.408200e-02,1.134500e+01
4.812900e-01,6.273700e-01,-1.923500e-01,-6.408200e-02,1.147200e+01
5.380400e-01,6.244700e-01,-1.921600e-01,-6.408200e-02,1.184700e+01
5.729600e-01,6.512800e-01,-1.939700e-01,-6.408200e-02,1.163900e+01
5.836000e-01,6.023600e-01,-1.906700e-01,-6.408200e-02,1.049700e+01
0,0,-1.500000e-01,-3.204100e-02,1.579000e+01
-4.092600e-02,1.449400e-02,-1.509800e-01,-3.204100e-02,1.517600e+01
-7.312100e-02,6.246600e-02,-1.542200e-01,-3.204100e-02,1.433000e+01
-1.091400e-02,1.320500e-01,-1.589100e-01,-3.204100e-02,1.353400e+01
-4.911100e-03,1.364300e-01,-1.592100e-01,-3.204100e-02,1.268100e+01
9.549300e-03,1.787100e-01,-1.620600e-01,-3.204100e-02,1.204400e+01
5.456800e-01,6.674700e-01,-1.950600e-01,-3.204100e-02,1.312000e+01
5.533200e-01,7.191700e-01,-1.985500e-01,-3.204100e-02,1.479100e+01
5.672300e-01,7.373300e-01,-1.997800e-01,-3.204100e-02,1.548800e+01
5.806000e-01,7.431900e-01,-2.001700e-01,-3.204100e-02,1.530900e+01
5.934200e-01,7.244700e-01,-1.989100e-01,-3.204100e-02,1.422700e+01
5.729600e-01,6.681100e-01,-1.951000e-01,-3.204100e-02,1.234000e+01
-7.235700e-01,3.875200e-01,-1.761600e-01,-3.204100e-02,1.166400e+01
-1.021800e+00,5.596600e-01,-1.877800e-01,-3.204100e-02,1.209400e+01
-9.625700e-01,5.971700e-01,-1.903200e-01,-3.204100e-02,1.290400e+01
-9.691200e-01,5.248000e-01,-1.854300e-01,-3.204100e-02,1.229600e+01
-1.016000e+00,7.690600e-01,-2.019200e-01,-3.204100e-02,1.150200e+01
-1.032100e+00,8.268500e-01,-2.058200e-01,-3.204100e-02,1.126100e+01
-1.036800e+00,9.322700e-01,-2.129400e-01,-3.204100e-02,1.002900e+01
