0,0,-1.500000e-01,0,1.679100e+01
-7.202900e-02,6.836200e-02,-1.505300e-01,0,1.532100e+01
-1.364200e-02,1.297900e-01,-1.510100e-01,0,1.444600e+01
-3.274100e-03,1.318400e-01,-1.510200e-01,0,1.360500e+01
1.527900e-02,1.716800e-01,-1.513300e-01,0,1.296600e+01
2.592000e-01,1.810200e-01,-1.514000e-01,0,1.349900e+01
5.604100e-01,7.125300e-01,-1.555200e-01,0,1.492900e+01
5.746000e-01,7.472200e-01,-1.557900e-01,0,1.552900e+01
5.882400e-01,7.778600e-01,-1.560300e-01,0,1.531200e+01
6.092500e-01,8.087700e-01,-1.562700e-01,0,1.414900e+01
6.466300e-01,7.593500e-01,-1.558800e-01,0,1.221300e+01
-7.142900e-01,3.104700e-01,-1.524100e-01,0,1.187900e+01
-9.388400e-01,5.792700e-01,-1.544900e-01,0,1.274700e+01
-1.005700e+00,7.708700e-01,-1.559700e-01,0,1.255400e+01
-1.042800e+00,7.355300e-01,-1.557000e-01,0,1.184900e+01
-1.080400e+00,7.255900e-01,-1.556200e-01,0,1.014200e+01
0,0,-1.500000e-01,3.204100e-02,1.577100e+01
-7.202900e-02,6.999600e-02,-1.505400e-01,3.204100e-02,1.431400e+01
-1.364200e-02,1.311200e-01,-1.510200e-01,3.204100e-02,1.344000e+01
-4.911100e-03,1.334000e-01,-1.510300e-01,3.204100e-02,1.259300e+01
1.336900e-02,1.756100e-01,-1.513600e-01,3.204100e-02,1.199200e+01
2.592000e-01,1.781100e-01,-1.513800e-01,3.204100e-02,1.268000e+01
5.604100e-01,7.104700e-01,-1.555100e-01,3.204100e-02,1.414500e+01
5.672300e-01,7.531500e-01,-1.558400e-01,3.204100e-02,1.480600e+01
5.729600e-01,7.814700e-01,-1.560600e-01,3.204100e-02,1.470500e+01
5.696900e-01,7.339500e-01,-1.556900e-01,3.204100e-02,1.387700e+01
5.729600e-01,4.641600e-01,-1.536000e-01,3.204100e-02,1.279900e+01
-7.421200e-01,3.701200e-01,-1.528700e-01,3.204100e-02,1.126800e+01
-9.489300e-01,1.646300e-01,-1.512800e-01,3.204100e-02,1.148000e+01
-1.016000e+00,7.506000e-01,-1.558200e-01,3.204100e-02,1.143500e+01
-1.042800e+00,6.975700e-01,-1.554100e-01,3.204100e-02,1.082100e+01
0,0,-1.500000e-01,6.408200e-02,9.951100e+00
2.411900e-01,3.090000e-02,-1.502400e-01,6.408200e-02,1.144500e+01
5.451300e-01,7.591200e-01,-1.558800e-01,6.408200e-02,1.239000e+01
5.271200e-01,6.703500e-01,-1.551900e-01,6.408200e-02,1.287100e+01
5.222100e-01,6.644300e-01,-1.551500e-01,6.408200e-02,1.320700e+01
5.402200e-01,7.252400e-01,-1.556200e-01,6.408200e-02,1.280100e+01
5.666900e-01,7.814400e-01,-1.560600e-01,6.408200e-02,1.138100e+01
6.302600e-01,8.653900e-01,-1.567100e-01,6.408200e-02,1.016000e+01
0,0,-1.500000e-01,9.612300e-02,9.849200e+00
4.823800e-01,5.690100e-01,-1.544100e-01,9.612300e-02,1.002700e+01
4.051600e-01,3.994000e-01,-1.531000e-01,9.612300e-02,1.168000e+01
3.743300e-01,5.228600e-01,-1.540500e-01,9.612300e-02,1.251000e+01
3.560500e-01,6.234400e-01,-1.548300e-01,9.612300e-02,1.269600e+01
6.875500e-01,7.814300e-01,-1.560600e-01,9.612300e-02,1.206300e+01
6.174300e-01,8.892900e-01,-1.568900e-01,9.612300e-02,1.073100e+01
-8.594400e-01,7.554700e-01,-1.558500e-01,9.612300e-02,1.041600e+01
-8.643500e-01,6.771000e-01,-1.552500e-01,9.612300e-02,1.072100e+01
-8.479800e-01,7.029000e-01,-1.554500e-01,9.612300e-02,1.026500e+01
0,0,-1.500000e-01,1.281600e-01,9.784300e+00
-1.364200e-03,3.391500e-02,-1.502600e-01,1.281600e-01,9.451900e+00
2.461000e-01,5.905600e-01,-1.545800e-01,1.281600e-01,9.494300e+00
2.447400e-01,5.976000e-01,-1.546300e-01,1.281600e-01,9.834300e+00
3.546900e-01,3.094500e-01,-1.524000e-01,1.281600e-01,1.012900e+01
3.757000e-01,4.974700e-01,-1.538600e-01,1.281600e-01,1.256200e+01
3.972500e-01,6.158600e-01,-1.547700e-01,1.281600e-01,1.368500e+01
4.430900e-01,7.454600e-01,-1.557800e-01,1.281600e-01,1.359400e+01
5.565900e-01,8.463200e-01,-1.565600e-01,1.281600e-01,1.335700e+01
5.666900e-01,8.933200e-01,-1.569200e-01,1.281600e-01,1.246200e+01
5.762300e-01,9.388300e-01,-1.572800e-01,1.281600e-01,1.065600e+01
3.784300e-01,3.568000e-01,-1.527600e-01,1.602100e-01,9.889800e+00
3.983400e-01,3.952300e-01,-1.530600e-01,1.602100e-01,9.803400e+00
2.521000e-01,4.476200e-01,-1.534700e-01,1.602100e-01,1.011200e+01
2.635600e-01,5.409400e-01,-1.541900e-01,1.602100e-01,1.050500e+01
2.684700e-01,5.852100e-01,-1.545400e-01,1.602100e-01,9.950700e+00
3.904300e-01,5.311200e-01,-1.541200e-01,1.602100e-01,1.204100e+01
4.278100e-01,6.617800e-01,-1.551300e-01,1.602100e-01,1.340600e+01
4.826500e-01,7.600700e-01,-1.558900e-01,1.602100e-01,1.387200e+01
5.402200e-01,8.189300e-01,-1.563500e-01,1.602100e-01,1.370300e+01
5.582300e-01,8.678900e-01,-1.567300e-01,1.602100e-01,1.263600e+01
5.675000e-01,9.152600e-01,-1.570900e-01,1.602100e-01,1.063700e+01
-8.070600e-01,2.881800e-01,-1.522300e-01,1.602100e-01,1.014200e+01
-8.594400e-01,4.843300e-01,-1.537500e-01,1.602100e-01,1.147400e+01
-9.036400e-01,5.928600e-01,-1.545900e-01,1.602100e-01,1.181000e+01
-9.388400e-01,7.097900e-01,-1.555000e-01,1.602100e-01,1.127300e+01
-9.642100e-01,8.321400e-01,-1.564500e-01,1.602100e-01,9.973000e+00
2.461000e-01,3.895700e-01,-1.530200e-01,1.922500e-01,1.031900e+01
2.635600e-01,5.367500e-01,-1.541600e-01,1.922500e-01,1.056800e+01
4.660100e-01,6.680000e-01,-1.551800e-01,1.922500e-01,1.091200e+01
5.143000e-01,7.463000e-01,-1.557800e-01,1.922500e-01,1.211500e+01
5.320300e-01,7.852200e-01,-1.560800e-01,1.922500e-01,1.224500e+01
5.497700e-01,8.281600e-01,-1.564200e-01,1.922500e-01,1.143100e+01
-7.792300e-01,5.807400e-01,-1.545000e-01,1.922500e-01,9.946500e+00
-8.498900e-01,5.990200e-01,-1.546400e-01,1.922500e-01,1.118000e+01
-8.938200e-01,6.565800e-01,-1.550900e-01,1.922500e-01,1.158600e+01
-9.287400e-01,7.306300e-01,-1.556600e-01,1.922500e-01,1.111000e+01
2.341000e-01,4.568900e-01,-1.535400e-01,2.242900e-01,9.604200e+00
2.572900e-01,5.710400e-01,-1.544300e-01,2.242900e-01,9.753300e+00
5.156600e-01,1.894900e-01,-1.514700e-01,2.242900e-01,1.050000e+01
-8.938200e-01,6.665100e-01,-1.551600e-01,2.242900e-01,1.017500e+01
-9.388400e-01,7.032800e-01,-1.554500e-01,2.242900e-01,9.880400e+00
-1.497900e+00,1.674200e+00,-1.629700e-01,-9.291900e-01,9.973000e+00
3.227700e-01,3.067700e+00,-1.737700e-01,-9.291900e-01,1.035700e+01
2.259100e-01,3.131500e+00,-1.742700e-01,-9.291900e-01,1.056800e+01
1.268700e-01,3.173300e+00,-1.745900e-01,-9.291900e-01,1.008400e+01
2.259100e-01,3.067000e+00,-1.737700e-01,-8.971500e-01,1.010200e+01
-4.313600e-01,9.433800e-01,-1.573100e-01,-8.330700e-01,9.858600e+00
-4.540000e-01,9.537500e-01,-1.573900e-01,-8.330700e-01,1.024100e+01
-4.591900e-01,9.565100e-01,-1.574100e-01,-8.330700e-01,1.008900e+01
-5.462200e-01,3.100400e+00,-1.740300e-01,-8.330700e-01,1.027600e+01
2.510100e-02,3.212300e+00,-1.748900e-01,-8.330700e-01,1.036800e+01
1.015000e-01,3.228000e+00,-1.750100e-01,-8.330700e-01,1.008900e+01
-4.103500e-01,9.800300e-01,-1.575900e-01,-8.010300e-01,9.537500e+00
-6.138900e-01,3.079500e+00,-1.738600e-01,-8.010300e-01,1.063400e+01
-5.710500e-01,3.103300e+00,-1.740500e-01,-8.010300e-01,1.117600e+01
-5.020200e-01,3.124800e+00,-1.742200e-01,-8.010300e-01,1.096900e+01
-4.862000e-01,9.760000e-01,-1.575600e-01,-7.689800e-01,9.717200e+00
-6.384400e-01,3.069200e+00,-1.737800e-01,-7.689800e-01,1.106600e+01
-6.703600e-01,3.078300e+00,-1.738500e-01,-7.689800e-01,1.155700e+01
-6.526300e-01,3.084700e+00,-1.739000e-01,-7.689800e-01,1.105100e+01
-7.121100e-01,3.009100e+00,-1.733200e-01,-7.369400e-01,1.039000e+01
-6.951900e-01,3.058700e+00,-1.737000e-01,-7.369400e-01,1.051000e+01
-2.220900e-01,7.010400e-01,-1.554300e-01,-6.728600e-01,9.808000e+00
-2.259100e-01,7.372900e-01,-1.557100e-01,-6.728600e-01,9.947200e+00
-2.941200e-01,6.518900e-01,-1.550500e-01,-6.408200e-01,9.833200e+00
-2.886600e-01,6.697100e-01,-1.551900e-01,-6.408200e-01,9.933100e+00
-2.701100e-01,6.647700e-01,-1.551500e-01,-6.087800e-01,9.531900e+00
-2.698400e-01,6.500100e-01,-1.550400e-01,-6.087800e-01,9.781900e+00
0,0,-1.500000e-01,-4.806200e-01,9.378800e+00
-8.766300e-01,1.985100e+00,-1.653800e-01,-4.806200e-01,1.077600e+01
-8.905400e-01,2.016300e+00,-1.656200e-01,-4.806200e-01,1.118100e+01
-8.689900e-01,2.064700e+00,-1.660000e-01,-4.806200e-01,1.056300e+01
-8.796300e-01,1.966600e+00,-1.652400e-01,-4.485700e-01,1.176400e+01
-8.938200e-01,1.988600e+00,-1.654100e-01,-4.485700e-01,1.322200e+01
-9.254700e-01,2.010700e+00,-1.655800e-01,-4.485700e-01,1.359100e+01
-9.576600e-01,2.036500e+00,-1.657800e-01,-4.485700e-01,1.294300e+01
-1.026400e+00,2.052500e+00,-1.659100e-01,-4.485700e-01,1.120400e+01
-8.796300e-01,1.969800e+00,-1.652600e-01,-4.165300e-01,1.221200e+01
-9.110100e-01,1.987400e+00,-1.654000e-01,-4.165300e-01,1.359200e+01
-9.429300e-01,2.009000e+00,-1.655700e-01,-4.165300e-01,1.393000e+01
-9.754000e-01,2.033400e+00,-1.657600e-01,-4.165300e-01,1.332100e+01
-1.044400e+00,2.040900e+00,-1.658200e-01,-4.165300e-01,1.193200e+01
-1.133400e+00,2.025200e+00,-1.656900e-01,-4.165300e-01,1.098100e+01
-1.150300e+00,2.050700e+00,-1.658900e-01,-4.165300e-01,1.089000e+01
-1.148400e+00,2.093400e+00,-1.662200e-01,-4.165300e-01,1.023400e+01
-8.458000e-01,1.985200e+00,-1.653800e-01,-3.844900e-01,1.080700e+01
-9.282000e-01,1.986200e+00,-1.653900e-01,-3.844900e-01,1.199900e+01
-9.778500e-01,2.001700e+00,-1.655100e-01,-3.844900e-01,1.224000e+01
-1.028600e+00,2.019400e+00,-1.656500e-01,-3.844900e-01,1.162700e+01
-1.080400e+00,2.035100e+00,-1.657700e-01,-3.844900e-01,1.052800e+01
-1.115100e+00,2.051700e+00,-1.659000e-01,-3.844900e-01,1.065000e+01
-1.131700e+00,2.079500e+00,-1.661100e-01,-3.844900e-01,1.105900e+01
-1.129600e+00,2.117700e+00,-1.664100e-01,-3.844900e-01,1.073800e+01
-8.556200e-01,2.025800e+00,-1.657000e-01,-3.524500e-01,9.761600e+00
-1.057500e+00,2.124500e+00,-1.664600e-01,-3.524500e-01,1.000200e+01
-1.073100e+00,2.147100e+00,-1.666400e-01,-3.524500e-01,1.004200e+01
0,0,-1.500000e-01,-9.612300e-02,9.829400e+00
1.091400e-03,3.489700e-02,-1.502700e-01,-9.612300e-02,9.298300e+00
-7.775900e-02,5.582500e-01,-1.543300e-01,-9.612300e-02,9.360900e+00
5.320300e-01,5.422100e-01,-1.542000e-01,-9.612300e-02,1.014900e+01
5.391300e-01,5.496800e-01,-1.542600e-01,-9.612300e-02,1.071100e+01
5.451300e-01,5.948600e-01,-1.546100e-01,-9.612300e-02,1.036900e+01
6.286200e-01,8.846500e-01,-1.568600e-01,-9.612300e-02,1.002300e+01
6.392600e-01,9.295600e-01,-1.572000e-01,-9.612300e-02,1.055600e+01
6.679100e-01,9.539400e-01,-1.573900e-01,-9.612300e-02,1.005700e+01
-6.548100e+00,4.326100e+00,2.942400e+00,-9.612300e-02,9.846200e+00
0,0,-1.500000e-01,-6.408200e-02,9.433000e+00
-7.366600e-02,4.639000e-01,-1.535900e-01,-6.408200e-02,9.641200e+00
-6.739100e-02,5.174800e-01,-1.540100e-01,-6.408200e-02,1.000300e+01
-6.548100e-02,5.528300e-01,-1.542800e-01,-6.408200e-02,9.548000e+00
5.604100e-01,6.491600e-01,-1.550300e-01,-6.408200e-02,1.037100e+01
6.040600e-01,7.061700e-01,-1.554700e-01,-6.408200e-02,1.027300e+01
6.482600e-01,9.111100e-01,-1.570600e-01,-6.408200e-02,1.029900e+01
6.957400e-01,9.290500e-01,-1.572000e-01,-6.408200e-02,1.008300e+01
-8.498900e-01,8.434600e-01,-1.565400e-01,-6.408200e-02,1.033800e+01
-9.036400e-01,8.230500e-01,-1.563800e-01,-6.408200e-02,1.076800e+01
-9.590300e-01,7.670500e-01,-1.559400e-01,-6.408200e-02,1.019900e+01
0,0,-1.500000e-01,-3.204100e-02,1.577300e+01
-7.202900e-02,6.776700e-02,-1.505300e-01,-3.204100e-02,1.428600e+01
-1.227800e-02,1.303000e-01,-1.510100e-01,-3.204100e-02,1.341300e+01
-3.274100e-03,1.277800e-01,-1.509900e-01,-3.204100e-02,1.256400e+01
1.527900e-02,1.671100e-01,-1.512900e-01,-3.204100e-02,1.191400e+01
2.592000e-01,1.185600e-01,-1.509200e-01,-3.204100e-02,1.249700e+01
5.675000e-01,7.073800e-01,-1.554800e-01,-3.204100e-02,1.392800e+01
5.819600e-01,7.416100e-01,-1.557500e-01,-3.204100e-02,1.450200e+01
6.035200e-01,7.684700e-01,-1.559600e-01,-3.204100e-02,1.424800e+01
6.409000e-01,7.820300e-01,-1.560600e-01,-3.204100e-02,1.307700e+01
-9.388400e-01,7.499600e-01,-1.558100e-01,-3.204100e-02,1.224100e+01
-9.953100e-01,7.588400e-01,-1.558800e-01,-3.204100e-02,1.178700e+01
-1.053400e+00,7.004800e-01,-1.554300e-01,-3.204100e-02,1.094900e+01
