0,0,-1.500000e-01,0,1.683100e+01
-4.092600e-02,2.214500e-02,-1.500000e-01,0,1.618600e+01
-7.312100e-02,6.541800e-02,-1.500100e-01,0,1.531600e+01
-1.227800e-02,1.339200e-01,-1.500300e-01,0,1.451000e+01
-4.911100e-03,1.373800e-01,-1.500300e-01,0,1.361300e+01
9.549300e-03,1.797100e-01,-1.500400e-01,0,1.304200e+01
5.525000e-01,6.579300e-01,-1.501400e-01,0,1.419200e+01
5.533200e-01,7.189800e-01,-1.501500e-01,0,1.584300e+01
5.525000e-01,7.413600e-01,-1.501600e-01,0,1.655500e+01
5.576800e-01,7.388000e-01,-1.501500e-01,0,1.647600e+01
5.459500e-01,7.628300e-01,-1.501600e-01,0,1.583900e+01
5.484000e-01,8.143200e-01,-1.501700e-01,0,1.471200e+01
5.836000e-01,8.672700e-01,-1.501800e-01,0,1.271400e+01
-8.070600e-01,8.000900e-01,-1.501700e-01,0,1.172500e+01
-9.835800e-01,6.240200e-01,-1.501300e-01,0,1.304200e+01
-9.625700e-01,5.382300e-01,-1.501100e-01,0,1.329100e+01
-9.953100e-01,8.037800e-01,-1.501700e-01,0,1.233700e+01
-1.021500e+00,7.847100e-01,-1.501600e-01,0,1.189900e+01
-1.069500e+00,7.887100e-01,-1.501700e-01,0,1.050200e+01
0,0,-1.500000e-01,3.204100e-02,1.582300e+01
-4.092600e-02,2.519600e-02,-1.500100e-01,3.204100e-02,1.517800e+01
-7.312100e-02,6.797700e-02,-1.500100e-01,3.204100e-02,1.429500e+01
-1.227800e-02,1.355600e-01,-1.500300e-01,3.204100e-02,1.348400e+01
-4.911100e-03,1.389000e-01,-1.500300e-01,3.204100e-02,1.259300e+01
1.145900e-02,1.829500e-01,-1.500400e-01,3.204100e-02,1.199800e+01
5.525000e-01,6.535500e-01,-1.501400e-01,3.204100e-02,1.314500e+01
5.533200e-01,7.196100e-01,-1.501500e-01,3.204100e-02,1.479300e+01
5.525000e-01,7.446300e-01,-1.501600e-01,3.204100e-02,1.546200e+01
5.424000e-01,7.372100e-01,-1.501500e-01,3.204100e-02,1.546000e+01
5.301200e-01,7.634200e-01,-1.501600e-01,3.204100e-02,1.526700e+01
5.484000e-01,8.083000e-01,-1.501700e-01,3.204100e-02,1.447800e+01
5.751400e-01,8.637700e-01,-1.501800e-01,3.204100e-02,1.262300e+01
-8.905400e-01,7.725600e-01,-1.501600e-01,3.204100e-02,1.085700e+01
-9.358400e-01,6.292000e-01,-1.501300e-01,3.204100e-02,1.260800e+01
-9.429300e-01,5.549200e-01,-1.501200e-01,3.204100e-02,1.291600e+01
-1.005700e+00,8.396300e-01,-1.501800e-01,3.204100e-02,1.122100e+01
-1.021500e+00,8.055200e-01,-1.501700e-01,3.204100e-02,1.098700e+01
4.681900e-01,6.824800e-01,-1.501400e-01,6.408200e-02,1.029200e+01
4.788300e-01,6.899100e-01,-1.501400e-01,6.408200e-02,1.192600e+01
5.042100e-01,7.112300e-01,-1.501500e-01,6.408200e-02,1.290300e+01
5.222100e-01,7.532000e-01,-1.501600e-01,6.408200e-02,1.305000e+01
5.484000e-01,8.064000e-01,-1.501700e-01,6.408200e-02,1.225000e+01
5.751400e-01,8.831400e-01,-1.501800e-01,6.408200e-02,1.011000e+01
-8.840000e-01,2.069100e-01,-1.500400e-01,6.408200e-02,1.137200e+01
-8.984600e-01,6.220900e-01,-1.501300e-01,6.408200e-02,1.090900e+01
0,0,-1.500000e-01,9.612300e-02,1.052500e+01
5.746000e-01,7.471600e-01,-1.501600e-01,9.612300e-02,1.055500e+01
5.882400e-01,7.725200e-01,-1.501600e-01,9.612300e-02,1.121700e+01
5.934200e-01,7.885500e-01,-1.501700e-01,9.612300e-02,1.140300e+01
5.893300e-01,8.166900e-01,-1.501700e-01,9.612300e-02,1.091000e+01
-9.625700e-01,4.836000e-01,-1.501000e-01,9.612300e-02,9.924200e+00
0,0,-1.500000e-01,-1.089400e+00,9.102800e+00
-3.020900e+00,5.231200e+00,-1.511000e-01,-1.089400e+00,1.045800e+01
-3.180700e+00,5.177700e+00,-1.510800e-01,-1.089400e+00,1.038200e+01
-2.909500e+00,5.246100e+00,-1.511000e-01,-1.057400e+00,1.010700e+01
-3.020900e+00,5.221000e+00,-1.510900e-01,-1.057400e+00,1.043200e+01
-3.228200e+00,5.147800e+00,-1.510800e-01,-1.057400e+00,1.010200e+01
-3.097300e+00,5.127500e+00,-1.510700e-01,-9.612300e-01,1.026900e+01
-3.162500e+00,5.146100e+00,-1.510800e-01,-9.612300e-01,1.005100e+01
-2.365000e+00,6.455300e+00,-1.513500e-01,-9.612300e-01,1.000800e+01
-2.268900e+00,6.532000e+00,-1.513700e-01,-9.612300e-01,1.025900e+01
-3.325900e-01,1.775100e+00,-1.503700e-01,-8.971500e-01,1.036300e+01
-3.388700e-01,1.806900e+00,-1.503800e-01,-8.971500e-01,1.094900e+01
-3.301300e-01,1.842400e+00,-1.503900e-01,-8.971500e-01,1.068500e+01
-1.792500e+00,4.705100e+00,-1.509900e-01,-8.971500e-01,9.944300e+00
-2.752700e+00,5.299600e+00,-1.511100e-01,-8.971500e-01,1.075000e+01
-2.815700e+00,5.305800e+00,-1.511100e-01,-8.971500e-01,1.095400e+01
-2.832100e+00,5.336800e+00,-1.511200e-01,-8.971500e-01,1.016100e+01
-3.615100e-01,1.781700e+00,-1.503700e-01,-8.651100e-01,1.033300e+01
-3.536000e-01,1.813500e+00,-1.503800e-01,-8.651100e-01,1.121500e+01
-3.601500e-01,1.850300e+00,-1.503900e-01,-8.651100e-01,1.112900e+01
-3.819700e-01,1.902400e+00,-1.504000e-01,-8.651100e-01,1.002900e+01
-2.873000e-01,2.809400e+00,-1.505900e-01,-8.651100e-01,9.961600e+00
-3.579600e-01,2.837000e+00,-1.505900e-01,-8.651100e-01,1.020400e+01
-1.091900e+00,2.770600e+00,-1.505800e-01,-8.651100e-01,1.027100e+01
-1.152500e+00,2.805100e+00,-1.505900e-01,-8.651100e-01,1.016700e+01
-2.643800e+00,5.307300e+00,-1.511100e-01,-8.651100e-01,9.867700e+00
-2.752700e+00,5.299000e+00,-1.511100e-01,-8.651100e-01,1.072600e+01
-2.862600e+00,5.280400e+00,-1.511100e-01,-8.651100e-01,1.084400e+01
-3.759700e-01,1.776200e+00,-1.503700e-01,-8.330700e-01,1.028200e+01
-3.830600e-01,1.795400e+00,-1.503800e-01,-8.330700e-01,1.094600e+01
-3.901600e-01,1.816400e+00,-1.503800e-01,-8.330700e-01,1.082800e+01
-2.431000e-01,2.802300e+00,-1.505900e-01,-8.330700e-01,1.050400e+01
-2.908500e-01,2.834900e+00,-1.505900e-01,-8.330700e-01,1.069000e+01
-1.068200e+00,2.844200e+00,-1.506000e-01,-8.330700e-01,1.036400e+01
-1.200500e+00,2.829000e+00,-1.505900e-01,-8.330700e-01,1.050900e+01
-4.927500e-01,1.371000e+00,-1.502900e-01,-8.010300e-01,9.956900e+00
-1.015000e+00,1.832500e+00,-1.503800e-01,-8.010300e-01,9.928300e+00
-1.015200e+00,1.845200e+00,-1.503900e-01,-8.010300e-01,1.042300e+01
-1.031900e+00,1.843500e+00,-1.503900e-01,-8.010300e-01,1.016200e+01
-2.873000e-01,2.798000e+00,-1.505900e-01,-8.010300e-01,1.066600e+01
-3.132200e-01,2.834400e+00,-1.505900e-01,-8.010300e-01,1.116600e+01
-3.623300e-01,2.865300e+00,-1.506000e-01,-8.010300e-01,1.069600e+01
-5.385800e-01,1.318300e+00,-1.502800e-01,-7.689800e-01,9.844500e+00
-5.396700e-01,1.346200e+00,-1.502800e-01,-7.689800e-01,1.005800e+01
-4.193500e-01,1.786200e+00,-1.503700e-01,-7.689800e-01,1.075600e+01
-4.125300e-01,1.826300e+00,-1.503800e-01,-7.689800e-01,1.095200e+01
-4.051600e-01,1.862600e+00,-1.503900e-01,-7.689800e-01,1.054300e+01
-3.094000e-01,2.790100e+00,-1.505800e-01,-7.689800e-01,1.089800e+01
-3.355900e-01,2.830700e+00,-1.505900e-01,-7.689800e-01,1.150200e+01
-3.623300e-01,2.867900e+00,-1.506000e-01,-7.689800e-01,1.106300e+01
-5.497700e+00,9.199700e+00,-1.519300e-01,-7.689800e-01,1.012600e+01
-4.583700e-01,1.344900e+00,-1.502800e-01,-7.369400e-01,9.912500e+00
-4.048900e-01,1.790000e+00,-1.503700e-01,-7.369400e-01,1.080500e+01
-3.978000e-01,1.828200e+00,-1.503800e-01,-7.369400e-01,1.123400e+01
-3.901600e-01,1.861700e+00,-1.503900e-01,-7.369400e-01,1.089200e+01
-3.315000e-01,2.764400e+00,-1.505800e-01,-7.369400e-01,1.028200e+01
-3.579600e-01,2.827000e+00,-1.505900e-01,-7.369400e-01,1.091500e+01
-3.396800e-01,2.877600e+00,-1.506000e-01,-7.369400e-01,1.053300e+01
-5.328500e+00,9.423300e+00,-1.519700e-01,-7.369400e-01,1.016400e+01
-4.250800e-01,1.308200e+00,-1.502700e-01,-7.049000e-01,9.957100e+00
-4.583700e-01,1.343500e+00,-1.502800e-01,-7.049000e-01,1.106400e+01
-5.162100e-01,1.374100e+00,-1.502900e-01,-7.049000e-01,1.111200e+01
-6.962800e-01,1.328900e+00,-1.502800e-01,-7.049000e-01,1.040000e+01
-8.226100e-01,1.298800e+00,-1.502700e-01,-7.049000e-01,9.851700e+00
-3.759700e-01,1.769900e+00,-1.503700e-01,-7.049000e-01,1.079500e+01
-3.978000e-01,1.810000e+00,-1.503800e-01,-7.049000e-01,1.139600e+01
-4.051600e-01,1.845800e+00,-1.503900e-01,-7.049000e-01,1.117800e+01
-3.972500e-01,1.868900e+00,-1.503900e-01,-7.049000e-01,1.021700e+01
-2.268900e+00,1.855300e+00,-1.503900e-01,-7.049000e-01,1.010400e+01
-2.040800e+00,2.077200e+00,-1.504400e-01,-7.049000e-01,1.007700e+01
-4.362700e-01,1.314400e+00,-1.502800e-01,-6.728600e-01,9.800800e+00
-4.583700e-01,1.342700e+00,-1.502800e-01,-6.728600e-01,1.080800e+01
-4.810100e-01,1.394500e+00,-1.502900e-01,-6.728600e-01,1.076100e+01
-7.923200e-01,1.247300e+00,-1.502600e-01,-6.728600e-01,1.011200e+01
-8.348900e-01,1.310700e+00,-1.502700e-01,-6.728600e-01,9.695800e+00
-4.272600e-01,1.779200e+00,-1.503700e-01,-6.728600e-01,1.075700e+01
-4.351800e-01,1.818600e+00,-1.503800e-01,-6.728600e-01,1.042100e+01
-1.971000e+00,2.123500e+00,-1.504400e-01,-6.728600e-01,1.035200e+01
-1.971300e+00,2.196300e+00,-1.504600e-01,-6.728600e-01,1.109200e+01
-1.971000e+00,2.261600e+00,-1.504700e-01,-6.728600e-01,1.085800e+01
-1.901700e+00,2.263600e+00,-1.504700e-01,-6.408200e-01,1.090800e+01
-1.947500e+00,2.271100e+00,-1.504800e-01,-6.408200e-01,1.068300e+01
0,0,-1.500000e-01,-5.447000e-01,9.410900e+00
-2.510100e-02,6.894300e-01,-1.501400e-01,-5.447000e-01,9.924400e+00
-1.964400e-02,7.526100e-01,-1.501600e-01,-5.447000e-01,9.829700e+00
-5.020200e-02,6.738400e-01,-1.501400e-01,-5.126600e-01,9.839700e+00
-3.274100e-02,7.393900e-01,-1.501500e-01,-5.126600e-01,9.738400e+00
-2.213300e+00,4.959200e+00,-1.510400e-01,-4.485700e-01,1.040100e+01
-2.270300e+00,4.984400e+00,-1.510400e-01,-4.485700e-01,1.116500e+01
-2.284700e+00,5.022500e+00,-1.510500e-01,-4.485700e-01,1.140000e+01
-2.342600e+00,5.015000e+00,-1.510500e-01,-4.485700e-01,1.115800e+01
-2.401000e+00,4.981400e+00,-1.510400e-01,-4.485700e-01,1.046600e+01
-2.213300e+00,4.975300e+00,-1.510400e-01,-4.165300e-01,1.200500e+01
-2.270300e+00,4.990800e+00,-1.510500e-01,-4.165300e-01,1.297900e+01
-2.284700e+00,5.021600e+00,-1.510500e-01,-4.165300e-01,1.315800e+01
-2.299200e+00,5.049800e+00,-1.510600e-01,-4.165300e-01,1.274600e+01
-2.313700e+00,5.071800e+00,-1.510600e-01,-4.165300e-01,1.183900e+01
-2.284200e+00,5.023100e+00,-1.510500e-01,-4.165300e-01,1.037500e+01
-2.608300e-01,8.312300e+00,-1.517400e-01,-4.165300e-01,1.033700e+01
-2.619200e-01,8.377200e+00,-1.517500e-01,-4.165300e-01,1.049900e+01
-2.170700e+00,4.996100e+00,-1.510500e-01,-3.844900e-01,1.170000e+01
-2.270300e+00,4.990600e+00,-1.510500e-01,-3.844900e-01,1.265400e+01
-2.284700e+00,5.022100e+00,-1.510500e-01,-3.844900e-01,1.278800e+01
-2.342600e+00,5.032700e+00,-1.510500e-01,-3.844900e-01,1.231600e+01
-2.313700e+00,5.077400e+00,-1.510600e-01,-3.844900e-01,1.133600e+01
-3.260400e-01,8.317200e+00,-1.517400e-01,-3.844900e-01,1.042400e+01
-1.964400e-01,8.370000e+00,-1.517500e-01,-3.844900e-01,1.051800e+01
0,0,-1.500000e-01,-1.602100e-01,9.614000e+00
3.290400e-01,3.049400e-01,-1.500600e-01,-1.602100e-01,9.545300e+00
4.935600e-01,5.394300e-01,-1.501100e-01,-1.602100e-01,1.038100e+01
5.194800e-01,5.341700e-01,-1.501100e-01,-1.602100e-01,1.144400e+01
5.459500e-01,5.289600e-01,-1.501100e-01,-1.602100e-01,1.168300e+01
5.811500e-01,4.559600e-01,-1.501000e-01,-1.602100e-01,1.112800e+01
3.044900e-01,3.768100e-01,-1.500800e-01,-1.281600e-01,9.421300e+00
5.107500e-01,6.825600e-01,-1.501400e-01,-1.281600e-01,1.022700e+01
5.156600e-01,6.429800e-01,-1.501300e-01,-1.281600e-01,1.200700e+01
5.271200e-01,6.239400e-01,-1.501300e-01,-1.281600e-01,1.270000e+01
5.459500e-01,6.080300e-01,-1.501300e-01,-1.281600e-01,1.250900e+01
5.729600e-01,5.611200e-01,-1.501200e-01,-1.281600e-01,1.143600e+01
0,0,-1.500000e-01,-9.612300e-02,9.675200e+00
-1.309600e-02,1.519000e-02,-1.500000e-01,-9.612300e-02,9.452900e+00
5.456800e-01,6.758000e-01,-1.501400e-01,-9.612300e-02,9.691700e+00
5.391300e-01,7.187700e-01,-1.501500e-01,-9.612300e-02,1.193700e+01
5.451300e-01,7.235200e-01,-1.501500e-01,-9.612300e-02,1.336900e+01
5.576800e-01,7.225500e-01,-1.501500e-01,-9.612300e-02,1.379000e+01
5.696900e-01,7.189200e-01,-1.501500e-01,-9.612300e-02,1.328900e+01
5.811500e-01,7.312500e-01,-1.501500e-01,-9.612300e-02,1.176900e+01
6.174300e-01,8.693600e-01,-1.501800e-01,-9.612300e-02,9.924400e+00
6.198900e-01,9.191700e-01,-1.501900e-01,-9.612300e-02,1.023900e+01
6.032500e-01,9.680300e-01,-1.502000e-01,-9.612300e-02,1.030700e+01
0,0,-1.500000e-01,-6.408200e-02,1.005300e+01
5.456800e-01,6.705200e-01,-1.501400e-01,-6.408200e-02,1.014100e+01
5.533200e-01,7.190500e-01,-1.501500e-01,-6.408200e-02,1.235700e+01
5.672300e-01,7.303700e-01,-1.501500e-01,-6.408200e-02,1.371000e+01
5.729600e-01,7.301000e-01,-1.501500e-01,-6.408200e-02,1.408100e+01
5.776000e-01,7.034700e-01,-1.501500e-01,-6.408200e-02,1.363300e+01
5.647800e-01,6.585900e-01,-1.501400e-01,-6.408200e-02,1.255500e+01
5.497700e-01,7.023400e-01,-1.501500e-01,-6.408200e-02,1.112800e+01
5.587700e-01,9.088900e-01,-1.501900e-01,-6.408200e-02,1.025700e+01
5.942400e-01,8.125500e-01,-1.501700e-01,-6.408200e-02,1.016500e+01
0,0,-1.500000e-01,-3.204100e-02,1.580900e+01
-4.092600e-02,1.596400e-02,-1.500000e-01,-3.204100e-02,1.515900e+01
-7.312100e-02,6.297000e-02,-1.500100e-01,-3.204100e-02,1.429400e+01
-1.227800e-02,1.316300e-01,-1.500300e-01,-3.204100e-02,1.349700e+01
-4.911100e-03,1.336800e-01,-1.500300e-01,-3.204100e-02,1.256900e+01
9.549300e-03,1.774700e-01,-1.500400e-01,-3.204100e-02,1.201400e+01
5.456800e-01,6.657600e-01,-1.501400e-01,-3.204100e-02,1.321600e+01
5.462200e-01,7.235600e-01,-1.501500e-01,-3.204100e-02,1.488300e+01
5.525000e-01,7.359700e-01,-1.501500e-01,-3.204100e-02,1.563000e+01
5.576800e-01,7.331300e-01,-1.501500e-01,-3.204100e-02,1.554600e+01
5.459500e-01,7.618300e-01,-1.501600e-01,-3.204100e-02,1.462700e+01
5.484000e-01,8.537500e-01,-1.501800e-01,-3.204100e-02,1.264800e+01
-6.771800e-01,6.639400e-01,-1.501400e-01,-3.204100e-02,1.097200e+01
-9.835800e-01,6.072400e-01,-1.501300e-01,-3.204100e-02,1.180600e+01
-9.429300e-01,5.412500e-01,-1.501100e-01,-3.204100e-02,1.228600e+01
-1.016000e+00,7.134000e-01,-1.501500e-01,-3.204100e-02,1.097300e+01
-1.032100e+00,6.938000e-01,-1.501500e-01,-3.204100e-02,1.060600e+01
