0,0,-1.500000e-01,0,1.678800e+01
-4.092600e-02,1.828900e-02,-1.499800e-01,0,1.619100e+01
-7.202900e-02,6.895100e-02,-1.499100e-01,0,1.531900e+01
-1.227800e-02,1.326500e-01,-1.498300e-01,0,1.451400e+01
-4.911100e-03,1.316700e-01,-1.498300e-01,0,1.350900e+01
9.549300e-03,1.730900e-01,-1.497800e-01,0,1.297600e+01
5.525000e-01,6.537900e-01,-1.491800e-01,0,1.421100e+01
5.533200e-01,7.197700e-01,-1.491000e-01,0,1.591200e+01
5.598600e-01,7.459300e-01,-1.490600e-01,0,1.662800e+01
5.729600e-01,7.552000e-01,-1.490500e-01,0,1.649000e+01
5.855100e-01,7.613700e-01,-1.490400e-01,0,1.544900e+01
5.893300e-01,8.133000e-01,-1.489800e-01,0,1.333300e+01
-8.627100e-01,8.154000e-01,-1.489800e-01,0,1.169900e+01
-9.549300e-01,6.286400e-01,-1.492100e-01,0,1.338700e+01
-9.527500e-01,5.703200e-01,-1.492800e-01,0,1.366000e+01
-9.590300e-01,3.817600e-01,-1.495200e-01,0,1.254400e+01
-1.016000e+00,7.892500e-01,-1.490100e-01,0,1.217400e+01
-1.032100e+00,7.663500e-01,-1.490400e-01,0,1.189300e+01
-1.047700e+00,7.874000e-01,-1.490100e-01,0,1.063600e+01
0,0,-1.500000e-01,3.204100e-02,1.578400e+01
-4.092600e-02,2.191900e-02,-1.499700e-01,3.204100e-02,1.517600e+01
-7.312100e-02,6.599400e-02,-1.499200e-01,3.204100e-02,1.430400e+01
-1.227800e-02,1.339700e-01,-1.498300e-01,3.204100e-02,1.350000e+01
-4.911100e-03,1.341800e-01,-1.498300e-01,3.204100e-02,1.244600e+01
9.549300e-03,1.724500e-01,-1.497800e-01,3.204100e-02,1.189900e+01
5.525000e-01,6.586900e-01,-1.491700e-01,3.204100e-02,1.320900e+01
5.533200e-01,7.195000e-01,-1.491000e-01,3.204100e-02,1.488900e+01
5.598600e-01,7.449000e-01,-1.490600e-01,3.204100e-02,1.557800e+01
5.729600e-01,7.568200e-01,-1.490500e-01,3.204100e-02,1.537500e+01
5.855100e-01,7.688800e-01,-1.490300e-01,3.204100e-02,1.421900e+01
5.893300e-01,8.312200e-01,-1.489600e-01,3.204100e-02,1.203600e+01
-8.998200e-01,6.980800e-01,-1.491200e-01,3.204100e-02,1.098100e+01
-9.167400e-01,5.939600e-01,-1.492500e-01,3.204100e-02,1.266900e+01
-9.232800e-01,5.689000e-01,-1.492900e-01,3.204100e-02,1.312000e+01
-9.287400e-01,6.582100e-01,-1.491700e-01,3.204100e-02,1.237600e+01
-9.849500e-01,8.484900e-01,-1.489300e-01,3.204100e-02,1.141200e+01
-1.032100e+00,8.009100e-01,-1.489900e-01,3.204100e-02,1.079100e+01
3.340400e+00,6.311800e+00,3.752900e+00,3.204100e-02,9.810100e+00
0,0,-1.500000e-01,6.408200e-02,1.077500e+01
3.628700e-01,3.091700e-01,-1.496100e-01,6.408200e-02,9.592100e+00
4.329900e-01,4.811100e-01,-1.494000e-01,6.408200e-02,9.388100e+00
4.583700e-01,5.379100e-01,-1.493200e-01,6.408200e-02,9.690600e+00
-8.212400e-01,7.886500e-01,-1.490100e-01,6.408200e-02,1.070200e+01
-8.447100e-01,9.207400e-01,-1.488400e-01,6.408200e-02,1.103700e+01
-8.782700e-01,8.867500e-01,-1.488900e-01,6.408200e-02,1.069200e+01
-9.123700e-01,9.091800e-01,-1.488600e-01,6.408200e-02,9.764500e+00
0,0,-1.500000e-01,9.612300e-02,9.966100e+00
-6.679100e-01,4.745600e+00,-1.440400e-01,-1.025300e+00,1.025500e+01
-1.863800e+00,1.473900e+00,-1.481500e-01,-9.932700e-01,1.042700e+01
-1.909900e+00,1.495000e+00,-1.481200e-01,-9.932700e-01,1.083500e+01
-1.956500e+00,1.486300e+00,-1.481300e-01,-9.932700e-01,1.013500e+01
-3.483600e+00,6.983700e+00,-1.412200e-01,-9.932700e-01,1.008700e+01
-1.957900e+00,1.371700e+00,-1.482800e-01,-9.612300e-01,1.056000e+01
-1.948100e+00,1.470900e+00,-1.481500e-01,-9.612300e-01,1.088700e+01
-1.975900e+00,1.495300e+00,-1.481200e-01,-9.612300e-01,1.020300e+01
-3.407200e+00,6.994300e+00,-1.412100e-01,-9.612300e-01,1.039500e+01
-3.483600e+00,6.997200e+00,-1.412100e-01,-9.612300e-01,1.103300e+01
-3.560500e+00,6.984600e+00,-1.412200e-01,-9.612300e-01,1.065700e+01
-1.957900e+00,1.362800e+00,-1.482900e-01,-9.291900e-01,1.091900e+01
-1.967200e+00,1.425900e+00,-1.482100e-01,-9.291900e-01,1.121200e+01
-1.995300e+00,1.464000e+00,-1.481600e-01,-9.291900e-01,1.044200e+01
-3.468000e+00,6.955500e+00,-1.412600e-01,-9.291900e-01,1.049700e+01
-3.483600e+00,6.995800e+00,-1.412100e-01,-9.291900e-01,1.102100e+01
-3.437800e+00,7.058600e+00,-1.411300e-01,-9.291900e-01,1.054200e+01
-4.692800e-01,1.224300e+00,-1.484600e-01,-8.971500e-01,9.985500e+00
-5.145700e-01,1.261400e+00,-1.484100e-01,-8.971500e-01,1.071300e+01
-5.500400e-01,1.308400e+00,-1.483600e-01,-8.971500e-01,1.054900e+01
-1.901400e+00,1.408900e+00,-1.482300e-01,-8.971500e-01,1.109300e+01
-1.929000e+00,1.473500e+00,-1.481500e-01,-8.971500e-01,1.162900e+01
-1.956500e+00,1.521400e+00,-1.480900e-01,-8.971500e-01,1.108600e+01
-3.422500e+00,7.025400e+00,-1.411700e-01,-8.971500e-01,1.050100e+01
-3.315000e+00,7.122300e+00,-1.410500e-01,-8.971500e-01,1.014700e+01
-4.256300e-01,1.259600e+00,-1.484200e-01,-8.651100e-01,9.770000e+00
-4.922000e-01,1.275300e+00,-1.484000e-01,-8.651100e-01,1.070600e+01
-5.156600e-01,1.311600e+00,-1.483500e-01,-8.651100e-01,1.071900e+01
-5.162100e-01,1.356500e+00,-1.483000e-01,-8.651100e-01,9.667000e+00
-2.014400e+00,1.171300e+00,-1.485300e-01,-8.651100e-01,1.012800e+01
-1.986300e+00,1.349200e+00,-1.483000e-01,-8.651100e-01,1.108400e+01
-1.937200e+00,1.498700e+00,-1.481200e-01,-8.651100e-01,1.072600e+01
-3.711400e+00,6.827800e+00,-1.414200e-01,-8.651100e-01,1.014000e+01
-3.605800e+00,6.941600e+00,-1.412800e-01,-8.651100e-01,1.061200e+01
-3.499200e+00,7.023700e+00,-1.411700e-01,-8.651100e-01,1.005700e+01
-3.819700e-01,1.250600e+00,-1.484300e-01,-8.330700e-01,1.027000e+01
-4.250800e-01,1.300100e+00,-1.483700e-01,-8.330700e-01,1.072600e+01
-4.583700e-01,1.320100e+00,-1.483400e-01,-8.330700e-01,1.033200e+01
-1.871700e+00,1.544200e+00,-1.480600e-01,-8.330700e-01,1.018500e+01
-2.241100e+00,1.228600e+00,-1.484600e-01,-8.330700e-01,1.020400e+01
-4.365400e-01,1.285000e+00,-1.483900e-01,-8.010300e-01,9.829100e+00
-4.586400e-01,1.300100e+00,-1.483700e-01,-8.010300e-01,1.065300e+01
-4.812900e-01,1.287300e+00,-1.483800e-01,-8.010300e-01,1.031300e+01
-8.335200e-01,1.340500e+00,-1.483200e-01,-8.010300e-01,1.061300e+01
-8.119700e-01,1.428200e+00,-1.482100e-01,-8.010300e-01,1.082600e+01
-8.689900e-01,1.436900e+00,-1.481900e-01,-8.010300e-01,1.066100e+01
-9.140100e-01,1.439500e+00,-1.481900e-01,-8.010300e-01,1.009800e+01
-4.911100e-01,1.301400e+00,-1.483600e-01,-7.689800e-01,9.663700e+00
-4.698300e-01,1.298700e+00,-1.483700e-01,-7.689800e-01,1.076300e+01
-5.042100e-01,1.310100e+00,-1.483500e-01,-7.689800e-01,1.089500e+01
-5.279400e-01,1.302700e+00,-1.483600e-01,-7.689800e-01,1.000500e+01
-9.699400e-01,1.227200e+00,-1.484600e-01,-7.689800e-01,9.997300e+00
-9.161900e-01,1.289100e+00,-1.483800e-01,-7.689800e-01,1.108800e+01
-8.976400e-01,1.326300e+00,-1.483300e-01,-7.689800e-01,1.151700e+01
-8.643500e-01,1.386700e+00,-1.482600e-01,-7.689800e-01,1.130100e+01
-8.689900e-01,1.435400e+00,-1.482000e-01,-7.689800e-01,1.064200e+01
-9.140100e-01,1.470800e+00,-1.481500e-01,-7.689800e-01,9.952400e+00
-1.871700e+00,1.529200e+00,-1.480800e-01,-7.689800e-01,9.990000e+00
-4.810100e-01,1.294200e+00,-1.483700e-01,-7.369400e-01,1.077000e+01
-5.042100e-01,1.324200e+00,-1.483400e-01,-7.369400e-01,1.115900e+01
-5.162100e-01,1.327400e+00,-1.483300e-01,-7.369400e-01,1.054400e+01
-9.822200e-01,1.191700e+00,-1.485000e-01,-7.369400e-01,1.050900e+01
-9.412900e-01,1.259200e+00,-1.484200e-01,-7.369400e-01,1.165400e+01
-9.232800e-01,1.318800e+00,-1.483400e-01,-7.369400e-01,1.185100e+01
-9.036400e-01,1.379000e+00,-1.482700e-01,-7.369400e-01,1.112100e+01
-5.825100e-01,9.680700e-01,-1.487800e-01,-7.049000e-01,1.002800e+01
-6.286200e-01,1.002900e+00,-1.487400e-01,-7.049000e-01,1.004100e+01
-4.927500e-01,1.309800e+00,-1.483500e-01,-7.049000e-01,1.045700e+01
-9.699400e-01,1.190900e+00,-1.485000e-01,-7.049000e-01,1.022500e+01
-9.538400e-01,1.238500e+00,-1.484400e-01,-7.049000e-01,1.159100e+01
-9.874000e-01,1.257100e+00,-1.484200e-01,-7.049000e-01,1.192300e+01
-1.021500e+00,1.278500e+00,-1.483900e-01,-7.049000e-01,1.125100e+01
-1.566100e+00,2.396800e+00,-1.469900e-01,-7.049000e-01,1.023500e+01
-1.675800e+00,2.352800e+00,-1.470400e-01,-7.049000e-01,1.041900e+01
-5.634100e-01,9.610400e-01,-1.487900e-01,-6.728600e-01,1.000800e+01
-6.089800e-01,1.022500e+00,-1.487200e-01,-6.728600e-01,1.008600e+01
-1.105000e+00,1.052300e+00,-1.486800e-01,-6.728600e-01,1.028600e+01
-1.091900e+00,1.118800e+00,-1.485900e-01,-6.728600e-01,1.064200e+01
-1.025900e+00,1.221200e+00,-1.484700e-01,-6.728600e-01,1.078000e+01
-1.047700e+00,1.266800e+00,-1.484100e-01,-6.728600e-01,1.064600e+01
-1.675800e+00,2.364700e+00,-1.470300e-01,-6.728600e-01,1.027000e+01
-2.154300e+00,2.366500e+00,-1.470300e-01,-6.728600e-01,1.032600e+01
-1.117300e+00,9.579500e-01,-1.488000e-01,-6.408200e-01,1.000800e+01
-1.179800e+00,9.625800e-01,-1.487900e-01,-6.408200e-01,1.010200e+01
0,0,-1.500000e-01,-5.767400e-01,9.193900e+00
1.091400e-03,3.419800e-02,-1.499600e-01,-5.767400e-01,9.091200e+00
-1.353300e+00,2.444200e+00,-1.469300e-01,-5.767400e-01,1.085400e+01
-1.326000e+00,2.498100e+00,-1.468600e-01,-5.767400e-01,1.066500e+01
0,0,-1.500000e-01,-5.447000e-01,9.607400e+00
-1.309600e+00,2.461100e+00,-1.469100e-01,-5.447000e-01,1.059700e+01
-1.326000e+00,2.495700e+00,-1.468600e-01,-5.447000e-01,1.034400e+01
-1.250700e+00,6.552000e+00,-1.417700e-01,-4.485700e-01,1.021100e+01
0,0,-1.500000e-01,-4.165300e-01,9.583000e+00
-1.244100e+00,6.508700e+00,-1.418200e-01,-4.165300e-01,1.155600e+01
-1.250700e+00,6.550100e+00,-1.417700e-01,-4.165300e-01,1.227100e+01
-1.204900e+00,6.596100e+00,-1.417100e-01,-4.165300e-01,1.194700e+01
-1.211100e+00,6.627600e+00,-1.416700e-01,-4.165300e-01,1.044300e+01
-1.244100e+00,6.501900e+00,-1.418300e-01,-3.844900e-01,1.160400e+01
-1.250700e+00,6.547300e+00,-1.417700e-01,-3.844900e-01,1.229200e+01
-1.257200e+00,6.586300e+00,-1.417200e-01,-3.844900e-01,1.196100e+01
-1.263800e+00,6.600100e+00,-1.417100e-01,-3.844900e-01,1.053700e+01
-2.416800e+00,2.614400e+00,-1.467100e-01,-3.524500e-01,1.132000e+01
-2.440300e+00,2.661200e+00,-1.466600e-01,-3.524500e-01,1.158600e+01
-2.463700e+00,2.705200e+00,-1.466000e-01,-3.524500e-01,1.107200e+01
-2.487200e+00,2.741800e+00,-1.465500e-01,-3.524500e-01,1.042900e+01
0,0,-1.500000e-01,-3.204100e-01,9.594400e+00
-2.365500e+00,2.553500e+00,-1.467900e-01,-3.204100e-01,1.116100e+01
-2.444900e+00,2.596100e+00,-1.467400e-01,-3.204100e-01,1.232400e+01
-2.497000e+00,2.613000e+00,-1.467200e-01,-3.204100e-01,1.245700e+01
-2.521000e+00,2.656500e+00,-1.466600e-01,-3.204100e-01,1.178200e+01
-2.574000e+00,2.652000e+00,-1.466700e-01,-3.204100e-01,1.084900e+01
-2.744200e+00,2.504200e+00,-1.468500e-01,-3.204100e-01,1.035300e+01
-2.365500e+00,2.536600e+00,-1.468100e-01,-2.883700e-01,1.031400e+01
-2.444900e+00,2.605400e+00,-1.467300e-01,-2.883700e-01,1.136600e+01
-2.497000e+00,2.628000e+00,-1.467000e-01,-2.883700e-01,1.142800e+01
-2.521000e+00,2.661000e+00,-1.466600e-01,-2.883700e-01,1.068000e+01
0,0,-1.500000e-01,-2.242900e-01,9.708300e+00
4.141700e-01,4.746800e-01,-1.494000e-01,-2.242900e-01,1.012800e+01
4.321800e-01,5.160300e-01,-1.493500e-01,-2.242900e-01,1.061800e+01
4.501800e-01,5.537700e-01,-1.493000e-01,-2.242900e-01,1.079400e+01
4.681900e-01,6.114700e-01,-1.492300e-01,-2.242900e-01,1.054100e+01
4.788300e-01,7.033700e-01,-1.491200e-01,-2.242900e-01,9.954200e+00
0,0,-1.500000e-01,-1.922500e-01,9.578700e+00
4.021600e-01,4.614300e-01,-1.494200e-01,-1.922500e-01,9.696700e+00
4.267200e-01,5.246400e-01,-1.493400e-01,-1.922500e-01,1.006800e+01
4.452700e-01,6.076700e-01,-1.492400e-01,-1.922500e-01,1.058900e+01
4.433600e-01,6.354300e-01,-1.492000e-01,-1.922500e-01,1.125100e+01
4.469100e-01,6.403600e-01,-1.492000e-01,-1.922500e-01,1.155600e+01
4.420000e-01,6.260400e-01,-1.492100e-01,-1.922500e-01,1.100900e+01
4.201700e-01,5.573400e-01,-1.493000e-01,-1.922500e-01,1.028200e+01
4.589100e-01,8.459800e-01,-1.489400e-01,-1.922500e-01,1.019100e+01
5.074800e-01,8.032000e-01,-1.489900e-01,-1.922500e-01,1.024500e+01
5.666900e-01,7.797000e-01,-1.490200e-01,-1.922500e-01,1.002300e+01
0,0,-1.500000e-01,-1.602100e-01,9.451400e+00
3.552400e-01,4.738700e-01,-1.494000e-01,-1.602100e-01,9.548700e+00
4.021600e-01,5.185100e-01,-1.493500e-01,-1.602100e-01,1.060300e+01
4.267200e-01,5.555500e-01,-1.493000e-01,-1.602100e-01,1.082600e+01
4.190800e-01,6.037200e-01,-1.492400e-01,-1.602100e-01,1.077000e+01
4.160800e-01,6.353100e-01,-1.492000e-01,-1.602100e-01,1.135400e+01
4.469100e-01,6.682600e-01,-1.491600e-01,-1.602100e-01,1.165500e+01
4.788300e-01,7.615100e-01,-1.490400e-01,-1.602100e-01,1.055700e+01
5.143000e-01,7.314200e-01,-1.490800e-01,-1.602100e-01,1.163800e+01
4.992900e-01,8.345200e-01,-1.489500e-01,-1.602100e-01,1.092600e+01
5.413100e-01,7.071800e-01,-1.491100e-01,-1.602100e-01,1.011400e+01
0,0,-1.500000e-01,-1.281600e-01,1.022800e+01
3.781500e-01,4.705700e-01,-1.494100e-01,-1.281600e-01,9.456700e+00
4.081700e-01,5.063600e-01,-1.493600e-01,-1.281600e-01,1.021000e+01
4.267200e-01,5.374400e-01,-1.493200e-01,-1.281600e-01,1.044500e+01
4.256300e-01,5.982900e-01,-1.492500e-01,-1.281600e-01,1.005100e+01
4.160800e-01,6.375500e-01,-1.492000e-01,-1.281600e-01,1.015400e+01
4.469100e-01,7.011400e-01,-1.491200e-01,-1.281600e-01,1.022700e+01
3.978000e-01,3.566900e-01,-1.495500e-01,-1.281600e-01,1.167600e+01
4.354500e-01,4.972700e-01,-1.493800e-01,-1.281600e-01,1.297500e+01
4.668300e-01,5.605300e-01,-1.493000e-01,-1.281600e-01,1.260000e+01
5.156600e-01,6.949600e-01,-1.491300e-01,-1.281600e-01,1.149600e+01
0,0,-1.500000e-01,-9.612300e-02,1.006500e+01
3.666900e-01,4.571000e-01,-1.494300e-01,-9.612300e-02,9.714700e+00
3.901600e-01,4.910700e-01,-1.493800e-01,-9.612300e-02,9.973400e+00
4.078900e-01,5.002300e-01,-1.493700e-01,-9.612300e-02,9.772900e+00
4.842900e-01,6.703300e-01,-1.491600e-01,-9.612300e-02,9.722900e+00
5.533200e-01,7.182000e-01,-1.491000e-01,-9.612300e-02,1.099900e+01
5.598600e-01,7.566000e-01,-1.490500e-01,-9.612300e-02,1.191200e+01
5.042100e-01,8.106600e-01,-1.489800e-01,-9.612300e-02,1.249500e+01
4.826500e-01,7.736500e-01,-1.490300e-01,-9.612300e-02,1.258900e+01
4.665500e-01,7.725700e-01,-1.490300e-01,-9.612300e-02,1.179100e+01
8.204200e-01,3.497000e-01,-1.495600e-01,-9.612300e-02,1.035800e+01
6.286200e-01,8.328600e-01,-1.489500e-01,-9.612300e-02,1.054600e+01
6.122500e-01,8.972200e-01,-1.488700e-01,-9.612300e-02,1.079000e+01
6.308000e-01,9.190700e-01,-1.488500e-01,-9.612300e-02,9.695000e+00
0,0,-1.500000e-01,-6.408200e-02,1.060200e+01
-1.855300e-02,9.407100e-03,-1.499900e-01,-6.408200e-02,1.023000e+01
4.267200e-01,5.394500e-01,-1.493200e-01,-6.408200e-02,9.400200e+00
4.583700e-01,6.195000e-01,-1.492200e-01,-6.408200e-02,9.865800e+00
4.842900e-01,6.523500e-01,-1.491800e-01,-6.408200e-02,1.092900e+01
5.320300e-01,7.105800e-01,-1.491100e-01,-6.408200e-02,1.277600e+01
5.525000e-01,7.545200e-01,-1.490500e-01,-6.408200e-02,1.346600e+01
5.653200e-01,7.181900e-01,-1.491000e-01,-6.408200e-02,1.385000e+01
5.776000e-01,6.883700e-01,-1.491300e-01,-6.408200e-02,1.298000e+01
1.637000e-02,7.410800e-01,-1.490700e-01,-6.408200e-02,1.091700e+01
6.089800e-01,7.498000e-01,-1.490600e-01,-6.408200e-02,1.065800e+01
5.937000e-01,8.831100e-01,-1.488900e-01,-6.408200e-02,1.160600e+01
5.942400e-01,9.231500e-01,-1.488400e-01,-6.408200e-02,1.186000e+01
5.937000e-01,9.699800e-01,-1.487800e-01,-6.408200e-02,1.087900e+01
0,0,-1.500000e-01,-3.204100e-02,1.575800e+01
-4.092600e-02,1.375600e-02,-1.499800e-01,-3.204100e-02,1.516900e+01
-7.202900e-02,6.685400e-02,-1.499200e-01,-3.204100e-02,1.430200e+01
-1.227800e-02,1.302100e-01,-1.498400e-01,-3.204100e-02,1.349100e+01
-4.911100e-03,1.259400e-01,-1.498400e-01,-3.204100e-02,1.241100e+01
9.549300e-03,1.706500e-01,-1.497900e-01,-3.204100e-02,1.193900e+01
5.593200e-01,6.392400e-01,-1.492000e-01,-3.204100e-02,1.335300e+01
5.604100e-01,7.137300e-01,-1.491000e-01,-3.204100e-02,1.510500e+01
5.672300e-01,7.458600e-01,-1.490600e-01,-3.204100e-02,1.587500e+01
5.729600e-01,7.537900e-01,-1.490500e-01,-3.204100e-02,1.589000e+01
5.776000e-01,7.534200e-01,-1.490500e-01,-3.204100e-02,1.502700e+01
5.647800e-01,7.946300e-01,-1.490000e-01,-3.204100e-02,1.294800e+01
5.942400e-01,9.658700e-01,-1.487900e-01,-3.204100e-02,1.102300e+01
-8.070600e-01,8.677400e-01,-1.489100e-01,-3.204100e-02,1.113200e+01
-9.549300e-01,6.526300e-01,-1.491800e-01,-3.204100e-02,1.229300e+01
-9.625700e-01,6.016600e-01,-1.492400e-01,-3.204100e-02,1.249000e+01
-9.792200e-01,3.228700e-01,-1.495900e-01,-3.204100e-02,1.110700e+01
-1.016000e+00,7.438200e-01,-1.490700e-01,-3.204100e-02,1.105600e+01
-1.032100e+00,7.295400e-01,-1.490800e-01,-3.204100e-02,1.084800e+01
