0,0,-1.500000e-01,0,1.680300e+01
-7.202900e-02,6.825300e-02,-1.492700e-01,0,1.532700e+01
-1.364200e-02,1.278400e-01,-1.486300e-01,0,1.443100e+01
-3.274100e-03,1.306200e-01,-1.486000e-01,0,1.363200e+01
1.527900e-02,1.728500e-01,-1.481500e-01,0,1.294700e+01
2.592000e-01,2.077900e-01,-1.477800e-01,0,1.354100e+01
5.604100e-01,7.144200e-01,-1.423700e-01,0,1.498200e+01
5.672300e-01,7.480200e-01,-1.420100e-01,0,1.558800e+01
5.882400e-01,7.680800e-01,-1.418000e-01,0,1.535200e+01
6.013400e-01,8.055900e-01,-1.413900e-01,0,1.415300e+01
-7.977800e-01,5.460200e-02,-1.494200e-01,0,1.275400e+01
-9.388400e-01,7.591400e-01,-1.418900e-01,0,1.327000e+01
-9.953100e-01,7.824000e-01,-1.416400e-01,0,1.297600e+01
-1.032100e+00,7.935500e-01,-1.415200e-01,0,1.201900e+01
-1.069500e+00,8.247000e-01,-1.411900e-01,0,1.065300e+01
0,0,-1.500000e-01,3.204100e-02,1.579800e+01
-4.174400e-02,9.020300e-03,-1.499000e-01,3.204100e-02,1.515900e+01
-7.202900e-02,7.053800e-02,-1.492500e-01,3.204100e-02,1.431100e+01
-1.364200e-02,1.302300e-01,-1.486100e-01,3.204100e-02,1.339600e+01
-3.274100e-03,1.360200e-01,-1.485500e-01,3.204100e-02,1.261300e+01
1.527900e-02,1.811900e-01,-1.480600e-01,3.204100e-02,1.191900e+01
2.592000e-01,2.703100e-01,-1.471100e-01,3.204100e-02,1.240700e+01
5.604100e-01,7.144100e-01,-1.423700e-01,3.204100e-02,1.386400e+01
5.672300e-01,7.478400e-01,-1.420100e-01,3.204100e-02,1.446400e+01
5.806000e-01,7.703400e-01,-1.417700e-01,3.204100e-02,1.421000e+01
5.934200e-01,7.932800e-01,-1.415300e-01,3.204100e-02,1.297800e+01
-8.163300e-01,2.935000e-01,-1.468600e-01,3.204100e-02,1.204000e+01
-8.403400e-01,1.845300e-01,-1.480300e-01,3.204100e-02,1.277600e+01
-9.489300e-01,7.917400e-01,-1.415400e-01,3.204100e-02,1.261700e+01
-9.953100e-01,7.987600e-01,-1.414700e-01,3.204100e-02,1.225400e+01
-1.032100e+00,7.945400e-01,-1.415100e-01,3.204100e-02,1.122500e+01
-1.080400e+00,7.669200e-01,-1.418100e-01,3.204100e-02,9.820400e+00
0,0,-1.500000e-01,6.408200e-02,1.025800e+01
3.983400e-01,4.476700e-01,-1.452200e-01,6.408200e-02,9.747300e+00
4.010700e-01,4.946700e-01,-1.447200e-01,6.408200e-02,1.067700e+01
4.141700e-01,5.206600e-01,-1.444400e-01,6.408200e-02,1.108600e+01
4.267200e-01,5.518400e-01,-1.441100e-01,6.408200e-02,1.064400e+01
5.604100e-01,7.142100e-01,-1.423700e-01,6.408200e-02,1.100300e+01
5.672300e-01,7.411000e-01,-1.420800e-01,6.408200e-02,1.187600e+01
5.806000e-01,7.458400e-01,-1.420300e-01,6.408200e-02,1.235400e+01
6.013400e-01,7.401600e-01,-1.420900e-01,6.408200e-02,1.193300e+01
-8.719900e-01,7.074600e-01,-1.424400e-01,6.408200e-02,1.013800e+01
-8.880900e-01,7.648900e-01,-1.418300e-01,6.408200e-02,1.106800e+01
-9.134600e-01,7.840400e-01,-1.416300e-01,6.408200e-02,1.125400e+01
-9.388400e-01,8.152000e-01,-1.412900e-01,6.408200e-02,1.070400e+01
0,0,-1.500000e-01,9.612300e-02,9.979900e+00
4.068000e-01,5.187300e-01,-1.444600e-01,9.612300e-02,1.030800e+01
4.201700e-01,5.255400e-01,-1.443900e-01,9.612300e-02,1.104800e+01
4.392700e-01,5.360100e-01,-1.442700e-01,9.612300e-02,1.065500e+01
5.388600e-01,6.374700e-01,-1.431900e-01,9.612300e-02,9.571100e+00
2.766600e-01,4.244000e-01,-1.454700e-01,9.612300e-02,1.103800e+01
3.094000e-01,5.192500e-01,-1.444500e-01,9.612300e-02,1.194200e+01
3.743300e-01,6.967600e-01,-1.425600e-01,9.612300e-02,1.221900e+01
4.747400e-01,8.012100e-01,-1.414400e-01,9.612300e-02,1.204500e+01
5.402200e-01,8.382100e-01,-1.410500e-01,9.612300e-02,1.130800e+01
-7.857700e-01,9.286300e-01,-1.400800e-01,9.612300e-02,1.022600e+01
-7.975100e-01,9.486500e-01,-1.398700e-01,9.612300e-02,1.011500e+01
4.068000e-01,4.472100e-01,-1.452200e-01,1.281600e-01,9.702200e+00
4.321800e-01,4.610900e-01,-1.450700e-01,1.281600e-01,1.044900e+01
4.581000e-01,4.633100e-01,-1.450500e-01,1.281600e-01,1.022500e+01
3.121300e-01,3.803500e-01,-1.459400e-01,1.281600e-01,1.036700e+01
3.315000e-01,5.615500e-01,-1.440000e-01,1.281600e-01,1.080300e+01
4.430900e-01,7.638600e-01,-1.418400e-01,1.281600e-01,1.136900e+01
5.380400e-01,8.075400e-01,-1.413700e-01,1.281600e-01,1.184000e+01
5.811500e-01,8.202200e-01,-1.412400e-01,1.281600e-01,1.120100e+01
-8.498900e-01,8.781000e-01,-1.406200e-01,1.281600e-01,1.040400e+01
-8.741700e-01,8.890700e-01,-1.405000e-01,1.281600e-01,1.090100e+01
-8.883600e-01,8.824500e-01,-1.405700e-01,1.281600e-01,1.051700e+01
4.125300e-01,4.515400e-01,-1.451800e-01,1.602100e-01,9.850500e+00
4.321800e-01,4.737400e-01,-1.449400e-01,1.602100e-01,1.064600e+01
4.518200e-01,4.893900e-01,-1.447700e-01,1.602100e-01,1.065600e+01
4.714600e-01,5.215700e-01,-1.444300e-01,1.602100e-01,9.944000e+00
4.493600e-01,5.852100e-01,-1.437500e-01,1.602100e-01,1.017700e+01
4.889300e-01,6.950200e-01,-1.425800e-01,1.602100e-01,1.097700e+01
5.222100e-01,7.589700e-01,-1.418900e-01,1.602100e-01,1.109100e+01
-8.689900e-01,8.245000e-01,-1.411900e-01,1.602100e-01,1.009200e+01
-9.036400e-01,8.055600e-01,-1.414000e-01,1.602100e-01,1.055800e+01
-9.287400e-01,8.144400e-01,-1.413000e-01,1.602100e-01,1.020800e+01
0,0,-1.500000e-01,2.883700e-01,9.303000e+00
2.750200e-01,3.686900e-01,-1.460600e-01,2.883700e-01,9.375200e+00
2.736600e-01,3.931700e-01,-1.458000e-01,2.883700e-01,9.993500e+00
2.897500e-01,4.373000e-01,-1.453300e-01,2.883700e-01,9.344900e+00
-6.149800e-01,3.344100e+00,-1.142800e-01,-9.612300e-01,1.023500e+01
-5.672300e-01,3.399900e+00,-1.136800e-01,-9.612300e-01,1.059900e+01
-5.456800e-01,3.445100e+00,-1.132000e-01,-9.612300e-01,1.007800e+01
-1.372100e+00,8.720500e-01,-1.406900e-01,-8.971500e-01,9.641100e+00
-1.414400e+00,8.228400e-01,-1.412100e-01,-8.971500e-01,1.031000e+01
-1.443900e+00,8.321800e-01,-1.411100e-01,-8.971500e-01,1.011800e+01
-4.174400e-01,3.532000e+00,-1.122700e-01,-8.971500e-01,9.903200e+00
-4.883300e+00,2.448000e+00,-1.238500e-01,-8.971500e-01,1.012500e+01
-4.612600e+00,3.018200e+00,-1.177600e-01,-8.971500e-01,1.057900e+01
-4.511700e+00,3.227400e+00,-1.155300e-01,-8.971500e-01,1.015600e+01
0,0,-1.500000e-01,-8.651100e-01,9.479100e+00
-1.466800e+00,7.361300e-01,-1.421400e-01,-8.651100e-01,1.004100e+01
-1.524100e+00,6.843000e-01,-1.426900e-01,-8.651100e-01,9.923100e+00
-3.857900e-01,3.499300e+00,-1.126200e-01,-8.651100e-01,9.772500e+00
-2.783000e-01,3.529500e+00,-1.123000e-01,-8.651100e-01,1.010400e+01
2.731100e-01,2.668200e+00,-1.215000e-01,-7.689800e-01,1.012900e+01
2.731100e-01,2.667800e+00,-1.215000e-01,-7.369400e-01,1.087300e+01
2.766600e-01,2.697500e+00,-1.211900e-01,-7.369400e-01,1.088900e+01
-6.002400e-02,5.207800e-01,-1.444400e-01,-7.049000e-01,9.610100e+00
-8.021400e-02,5.883900e-01,-1.437200e-01,-7.049000e-01,1.056300e+01
-9.603900e-02,6.413300e-01,-1.431500e-01,-7.049000e-01,1.043800e+01
2.521000e-01,2.666100e+00,-1.215200e-01,-7.049000e-01,1.059000e+01
2.766600e-01,2.688500e+00,-1.212800e-01,-7.049000e-01,1.063500e+01
-7.639500e-02,5.547200e-01,-1.440700e-01,-6.728600e-01,1.018600e+01
-8.594400e-02,6.169200e-01,-1.434100e-01,-6.728600e-01,1.116900e+01
-9.603900e-02,6.694100e-01,-1.428500e-01,-6.728600e-01,1.109700e+01
-1.066800e-01,7.224200e-01,-1.422800e-01,-6.728600e-01,9.830900e+00
-8.730800e-02,5.210600e-01,-1.444300e-01,-6.408200e-01,9.650200e+00
-8.594400e-02,5.951400e-01,-1.436400e-01,-6.408200e-01,1.060600e+01
-9.003700e-02,6.598300e-01,-1.429500e-01,-6.408200e-01,1.051000e+01
0,0,-1.500000e-01,-3.844900e-01,9.625500e+00
-5.156600e-02,5.556400e-01,-1.440600e-01,-3.844900e-01,9.548400e+00
4.381800e-01,4.908300e-01,-1.447600e-01,-3.844900e-01,9.696500e+00
-9.833100e-01,2.160900e+00,-1.269200e-01,-3.844900e-01,1.111000e+01
-9.789400e-01,2.196100e+00,-1.265400e-01,-3.844900e-01,1.231500e+01
-1.012200e+00,2.210800e+00,-1.263900e-01,-3.844900e-01,1.252000e+01
-1.084800e+00,2.202200e+00,-1.264800e-01,-3.844900e-01,1.164100e+01
-4.583700e-02,5.984500e-01,-1.436100e-01,-3.524500e-01,9.864100e+00
4.321800e-01,5.024800e-01,-1.446300e-01,-3.524500e-01,9.960200e+00
4.643700e-01,4.798900e-01,-1.448700e-01,-3.524500e-01,9.841800e+00
-1.042000e+00,2.084100e+00,-1.277400e-01,-3.524500e-01,9.874000e+00
-9.647600e-01,2.168100e+00,-1.268400e-01,-3.524500e-01,1.186000e+01
-9.601200e-01,2.201100e+00,-1.264900e-01,-3.524500e-01,1.294100e+01
-9.931300e-01,2.217200e+00,-1.263200e-01,-3.524500e-01,1.301200e+01
-1.026700e+00,2.235000e+00,-1.261300e-01,-3.524500e-01,1.195600e+01
4.141700e-01,5.210300e-01,-1.444300e-01,-3.204100e-01,9.975800e+00
4.392700e-01,5.084700e-01,-1.445700e-01,-3.204100e-01,9.911000e+00
-1.001900e+00,2.152900e+00,-1.270000e-01,-3.204100e-01,1.093100e+01
-9.789400e-01,2.183900e+00,-1.266700e-01,-3.204100e-01,1.153500e+01
-9.549300e-01,2.203900e+00,-1.264600e-01,-3.204100e-01,1.117200e+01
-9.685800e-01,2.220200e+00,-1.262800e-01,-3.204100e-01,1.006200e+01
-1.015800e+00,2.336400e+00,-1.250400e-01,-3.204100e-01,1.028900e+01
-1.070100e+00,2.351100e+00,-1.248900e-01,-3.204100e-01,1.078200e+01
-1.125500e+00,2.362400e+00,-1.247700e-01,-3.204100e-01,1.044700e+01
-1.090300e+00,2.343100e+00,-1.249700e-01,-2.883700e-01,1.066200e+01
-1.125500e+00,2.363700e+00,-1.247500e-01,-2.883700e-01,1.037700e+01
0,0,-1.500000e-01,-1.922500e-01,9.644900e+00
-2.111800e-01,4.494700e-01,-1.452000e-01,-1.922500e-01,9.713200e+00
4.297200e-01,4.092900e-01,-1.456300e-01,-1.922500e-01,1.070800e+01
4.441800e-01,4.040200e-01,-1.456800e-01,-1.922500e-01,1.134700e+01
4.518200e-01,3.994900e-01,-1.457300e-01,-1.922500e-01,1.097400e+01
0,0,-1.500000e-01,-6.408200e-02,1.103400e+01
-2.182700e-03,3.483200e-02,-1.496300e-01,-6.408200e-02,1.057400e+01
-8.594400e-01,8.300000e-01,-1.411300e-01,-6.408200e-02,1.000500e+01
-8.840000e-01,8.655000e-01,-1.407600e-01,-6.408200e-02,1.044700e+01
-9.186500e-01,8.592600e-01,-1.408200e-01,-6.408200e-02,1.022800e+01
0,0,-1.500000e-01,-3.204100e-02,1.577600e+01
-7.202900e-02,6.648800e-02,-1.492900e-01,-3.204100e-02,1.430500e+01
-1.364200e-02,1.254800e-01,-1.486600e-01,-3.204100e-02,1.342200e+01
-3.274100e-03,1.254900e-01,-1.486600e-01,-3.204100e-02,1.262700e+01
1.527900e-02,1.661900e-01,-1.482200e-01,-3.204100e-02,1.194700e+01
2.592000e-01,1.593600e-01,-1.483000e-01,-3.204100e-02,1.264800e+01
5.604100e-01,7.144100e-01,-1.423700e-01,-3.204100e-02,1.407000e+01
5.746000e-01,7.430100e-01,-1.420600e-01,-3.204100e-02,1.465100e+01
5.882400e-01,7.696500e-01,-1.417800e-01,-3.204100e-02,1.437300e+01
6.171600e-01,7.969900e-01,-1.414900e-01,-3.204100e-02,1.311400e+01
-7.977800e-01,3.977900e-01,-1.457500e-01,-3.204100e-02,1.160400e+01
-8.212400e-01,4.725400e-01,-1.449500e-01,-3.204100e-02,1.232700e+01
-9.388400e-01,6.368700e-01,-1.432000e-01,-3.204100e-02,1.185100e+01
-9.849500e-01,7.662900e-01,-1.418100e-01,-3.204100e-02,1.169500e+01
-1.021500e+00,7.867700e-01,-1.416000e-01,-3.204100e-02,1.071900e+01
