0,0,-1.500000e-01,0,1.680500e+01
-4.092600e-02,2.221600e-02,-1.500400e-01,0,1.618700e+01
-7.312100e-02,6.551600e-02,-1.501200e-01,0,1.533200e+01
-1.091400e-02,1.340900e-01,-1.502500e-01,0,1.451800e+01
-3.274100e-03,1.364600e-01,-1.502600e-01,0,1.366100e+01
9.549300e-03,1.767800e-01,-1.503300e-01,0,1.302300e+01
5.456800e-01,6.646700e-01,-1.512500e-01,0,1.415400e+01
5.533200e-01,7.189100e-01,-1.513600e-01,0,1.583900e+01
5.525000e-01,7.435700e-01,-1.514000e-01,0,1.656800e+01
5.653200e-01,7.439100e-01,-1.514000e-01,0,1.648200e+01
5.696900e-01,7.534900e-01,-1.514200e-01,0,1.561100e+01
5.729600e-01,8.002500e-01,-1.515100e-01,0,1.390100e+01
-9.740300e-01,4.442200e-01,-1.508400e-01,0,1.180600e+01
-8.976400e-01,5.477500e-01,-1.510300e-01,0,1.385800e+01
-9.232800e-01,5.949200e-01,-1.511200e-01,0,1.440400e+01
-9.590300e-01,6.039100e-01,-1.511400e-01,0,1.355900e+01
-1.057500e+00,6.685700e-01,-1.512600e-01,0,1.159000e+01
-1.032100e+00,7.704600e-01,-1.514500e-01,0,1.185700e+01
-1.080400e+00,7.408500e-01,-1.514000e-01,0,1.038000e+01
0,0,-1.500000e-01,3.204100e-02,1.579600e+01
-4.092600e-02,2.538600e-02,-1.500500e-01,3.204100e-02,1.517200e+01
-7.312100e-02,6.697400e-02,-1.501300e-01,3.204100e-02,1.430600e+01
-1.227800e-02,1.333500e-01,-1.502500e-01,3.204100e-02,1.351200e+01
-4.911100e-03,1.336800e-01,-1.502500e-01,3.204100e-02,1.264400e+01
1.145900e-02,1.783800e-01,-1.503400e-01,3.204100e-02,1.202100e+01
5.456800e-01,6.641800e-01,-1.512500e-01,3.204100e-02,1.320000e+01
5.462200e-01,7.241500e-01,-1.513600e-01,3.204100e-02,1.492000e+01
5.525000e-01,7.440900e-01,-1.514000e-01,3.204100e-02,1.569800e+01
5.653200e-01,7.504100e-01,-1.514100e-01,3.204100e-02,1.566900e+01
5.696900e-01,7.661700e-01,-1.514400e-01,3.204100e-02,1.485600e+01
5.729600e-01,7.961200e-01,-1.515000e-01,3.204100e-02,1.317000e+01
-9.183700e-01,7.452800e-01,-1.514000e-01,3.204100e-02,1.074700e+01
-9.549300e-01,6.454600e-01,-1.512200e-01,3.204100e-02,1.246800e+01
-9.527500e-01,6.538600e-01,-1.512300e-01,3.204100e-02,1.301800e+01
-9.691200e-01,6.457600e-01,-1.512200e-01,3.204100e-02,1.205300e+01
-1.067900e+00,7.660900e-01,-1.514400e-01,3.204100e-02,1.007800e+01
-1.010900e+00,7.719500e-01,-1.514600e-01,3.204100e-02,1.063600e+01
0,0,-1.500000e-01,6.408200e-02,1.066100e+01
-3.410500e-02,6.600500e-03,-1.500100e-01,6.408200e-02,1.041700e+01
4.199000e-01,6.545800e-01,-1.512300e-01,6.408200e-02,1.020300e+01
4.812900e-01,7.426600e-01,-1.514000e-01,6.408200e-02,1.071100e+01
5.617700e-01,8.049700e-01,-1.515200e-01,6.408200e-02,1.104800e+01
5.893300e-01,8.457400e-01,-1.515900e-01,6.408200e-02,1.026300e+01
-8.689900e-01,2.966800e-01,-1.505600e-01,6.408200e-02,1.054400e+01
-9.036400e-01,3.839100e-01,-1.507200e-01,6.408200e-02,1.088000e+01
-9.489300e-01,3.459900e-01,-1.506500e-01,6.408200e-02,1.024100e+01
-4.810100e-01,1.373100e+00,-1.525900e-01,-1.025300e+00,1.042100e+01
-5.162100e-01,1.400800e+00,-1.526400e-01,-1.025300e+00,1.212700e+01
-5.402200e-01,1.434300e+00,-1.527000e-01,-1.025300e+00,1.286000e+01
-5.647800e-01,1.463800e+00,-1.527600e-01,-1.025300e+00,1.268300e+01
-6.155200e-01,1.479500e+00,-1.527900e-01,-1.025300e+00,1.156000e+01
-5.044800e-01,1.334100e+00,-1.525100e-01,-9.932700e-01,9.897300e+00
-5.522200e-01,1.390000e+00,-1.526200e-01,-9.932700e-01,1.157700e+01
-5.893300e-01,1.424500e+00,-1.526900e-01,-9.932700e-01,1.186000e+01
-6.651800e-01,1.430600e+00,-1.527000e-01,-9.932700e-01,1.098300e+01
-2.379100e-01,3.768900e+00,-1.571000e-01,-9.932700e-01,1.032800e+01
-2.401000e-01,3.823100e+00,-1.572100e-01,-9.932700e-01,1.060600e+01
-4.692800e-01,1.290800e+00,-1.524300e-01,-9.612300e-01,9.950000e+00
-5.162100e-01,1.366100e+00,-1.525700e-01,-9.612300e-01,1.143600e+01
-5.279400e-01,1.407200e+00,-1.526500e-01,-9.612300e-01,1.182600e+01
-5.145700e-01,1.449400e+00,-1.527300e-01,-9.612300e-01,1.146200e+01
-5.129400e-01,1.498500e+00,-1.528200e-01,-9.612300e-01,1.060500e+01
-9.792200e-01,3.225000e+00,-1.560800e-01,-9.612300e-01,9.964400e+00
-1.016000e+00,3.242700e+00,-1.561100e-01,-9.612300e-01,1.015300e+01
-2.081800e-01,3.787100e+00,-1.571400e-01,-9.612300e-01,1.102500e+01
-2.401000e-01,3.826700e+00,-1.572100e-01,-9.612300e-01,1.148800e+01
-2.725700e-01,3.862200e+00,-1.572800e-01,-9.612300e-01,1.085500e+01
-5.162100e-01,1.334000e+00,-1.525100e-01,-9.291900e-01,1.035000e+01
-5.042100e-01,1.379300e+00,-1.526000e-01,-9.291900e-01,1.199300e+01
-5.156600e-01,1.422100e+00,-1.526800e-01,-9.291900e-01,1.274200e+01
-5.396700e-01,1.459200e+00,-1.527500e-01,-9.291900e-01,1.263600e+01
-5.770500e-01,1.491200e+00,-1.528100e-01,-9.291900e-01,1.167400e+01
-6.024300e-01,1.542300e+00,-1.529100e-01,-9.291900e-01,9.927600e+00
-5.396700e-01,1.323400e+00,-1.524900e-01,-8.971500e-01,1.025800e+01
-5.522200e-01,1.377100e+00,-1.526000e-01,-8.971500e-01,1.224500e+01
-5.647800e-01,1.413300e+00,-1.526600e-01,-8.971500e-01,1.311400e+01
-6.024300e-01,1.435600e+00,-1.527100e-01,-8.971500e-01,1.300700e+01
-6.539900e-01,1.450000e+00,-1.527300e-01,-8.971500e-01,1.188700e+01
-3.143100e-01,2.174800e+00,-1.541000e-01,-8.971500e-01,1.048000e+01
-3.369600e-01,2.183900e+00,-1.541200e-01,-8.971500e-01,1.047400e+01
-2.208900e+00,2.135200e+00,-1.540200e-01,-8.971500e-01,1.008900e+01
-2.973900e-01,3.775900e+00,-1.571200e-01,-8.971500e-01,1.090900e+01
-3.301300e-01,3.808300e+00,-1.571800e-01,-8.971500e-01,1.123600e+01
-3.331400e-01,3.839800e+00,-1.572400e-01,-8.971500e-01,1.045200e+01
-6.242500e-01,1.375500e+00,-1.525900e-01,-8.651100e-01,1.059100e+01
-6.630000e-01,1.388100e+00,-1.526200e-01,-8.651100e-01,1.177100e+01
-7.404800e-01,1.360700e+00,-1.525600e-01,-8.651100e-01,1.151400e+01
-3.847000e-01,1.589400e+00,-1.530000e-01,-8.651100e-01,1.155200e+01
-4.452700e-01,1.589600e+00,-1.530000e-01,-8.651100e-01,1.144100e+01
-4.679200e-01,1.612400e+00,-1.530400e-01,-8.651100e-01,1.016800e+01
-3.437800e-01,2.156400e+00,-1.540600e-01,-8.651100e-01,9.824000e+00
-2.968500e-01,2.180600e+00,-1.541100e-01,-8.651100e-01,1.103100e+01
-3.014900e-01,2.213800e+00,-1.541700e-01,-8.651100e-01,1.113800e+01
-3.601500e-01,2.235600e+00,-1.542100e-01,-8.651100e-01,1.018600e+01
-3.568700e-01,3.778000e+00,-1.571200e-01,-8.651100e-01,1.074300e+01
-3.601500e-01,3.814000e+00,-1.571900e-01,-8.651100e-01,1.137200e+01
-3.937100e-01,3.842800e+00,-1.572400e-01,-8.651100e-01,1.094500e+01
-5.282100e-01,1.395100e+00,-1.526300e-01,-8.330700e-01,1.131600e+01
-5.647800e-01,1.425500e+00,-1.526900e-01,-8.330700e-01,1.207600e+01
-4.643700e-01,1.517100e+00,-1.528600e-01,-8.330700e-01,1.219400e+01
-4.360000e-01,1.550700e+00,-1.529200e-01,-8.330700e-01,1.280200e+01
-4.583700e-01,1.577200e+00,-1.529700e-01,-8.330700e-01,1.260000e+01
-4.946600e-01,1.608500e+00,-1.530300e-01,-8.330700e-01,1.144400e+01
-3.841600e-01,2.165600e+00,-1.540800e-01,-8.330700e-01,1.044100e+01
-3.192200e-01,2.229400e+00,-1.542000e-01,-8.330700e-01,1.040200e+01
-2.160900e+00,2.132400e+00,-1.540200e-01,-8.330700e-01,1.003600e+01
-2.676500e-01,3.776500e+00,-1.571200e-01,-8.330700e-01,1.120400e+01
-3.301300e-01,3.808400e+00,-1.571800e-01,-8.330700e-01,1.187400e+01
-3.634200e-01,3.834600e+00,-1.572300e-01,-8.330700e-01,1.152900e+01
-5.279400e-01,1.318600e+00,-1.524900e-01,-8.010300e-01,9.997700e+00
-5.402200e-01,1.382800e+00,-1.526100e-01,-8.010300e-01,1.195400e+01
-5.770500e-01,1.414600e+00,-1.526700e-01,-8.010300e-01,1.277300e+01
-6.651800e-01,1.406900e+00,-1.526500e-01,-8.010300e-01,1.225200e+01
-3.462300e-01,1.566600e+00,-1.529500e-01,-8.010300e-01,1.208800e+01
-4.321800e-01,1.580800e+00,-1.529800e-01,-8.010300e-01,1.254500e+01
-4.679200e-01,1.612500e+00,-1.530400e-01,-8.010300e-01,1.157900e+01
-2.158700e+00,1.769600e+00,-1.533400e-01,-8.010300e-01,9.921100e+00
-2.136300e+00,2.122100e+00,-1.540000e-01,-8.010300e-01,1.058900e+01
-2.184900e+00,2.156700e+00,-1.540700e-01,-8.010300e-01,1.086900e+01
-2.258300e+00,2.135400e+00,-1.540300e-01,-8.010300e-01,1.061300e+01
-1.473300e-01,3.753600e+00,-1.570800e-01,-8.010300e-01,1.016000e+01
-2.973900e-01,3.770900e+00,-1.571100e-01,-8.010300e-01,1.182900e+01
-3.301300e-01,3.803500e+00,-1.571700e-01,-8.010300e-01,1.235700e+01
-3.634200e-01,3.824600e+00,-1.572100e-01,-8.010300e-01,1.186300e+01
-4.583700e-01,3.784000e+00,-1.571300e-01,-8.010300e-01,1.020100e+01
-5.522200e-01,1.391400e+00,-1.526200e-01,-7.689800e-01,1.167600e+01
-5.770500e-01,1.416400e+00,-1.526700e-01,-7.689800e-01,1.262400e+01
-6.400800e-01,1.433300e+00,-1.527000e-01,-7.689800e-01,1.239200e+01
-3.334100e-01,1.429300e+00,-1.526900e-01,-7.689800e-01,1.130200e+01
-4.321800e-01,1.565500e+00,-1.529500e-01,-7.689800e-01,1.195800e+01
-4.679200e-01,1.589400e+00,-1.530000e-01,-7.689800e-01,1.106200e+01
-1.060200e+00,1.716100e+00,-1.532300e-01,-7.689800e-01,1.061900e+01
-1.142900e+00,1.701000e+00,-1.532100e-01,-7.689800e-01,1.051600e+01
-3.143100e-01,2.176500e+00,-1.541000e-01,-7.689800e-01,1.005900e+01
-3.192200e-01,2.196200e+00,-1.541400e-01,-7.689800e-01,1.052400e+01
-2.459900e+00,2.009700e+00,-1.537900e-01,-7.689800e-01,1.013400e+01
-2.973900e-01,3.780400e+00,-1.571300e-01,-7.689800e-01,1.087200e+01
-3.301300e-01,3.808900e+00,-1.571800e-01,-7.689800e-01,1.146000e+01
-3.937100e-01,3.820300e+00,-1.572000e-01,-7.689800e-01,1.104600e+01
-7.082900e-01,1.314100e+00,-1.524800e-01,-7.369400e-01,1.090400e+01
-6.507200e-01,1.370700e+00,-1.525800e-01,-7.369400e-01,1.156700e+01
-6.526300e-01,1.407500e+00,-1.526500e-01,-7.369400e-01,1.161600e+01
-6.539900e-01,1.440900e+00,-1.527200e-01,-7.369400e-01,1.089800e+01
-4.845600e-01,1.441100e+00,-1.527200e-01,-7.369400e-01,1.011100e+01
-1.076100e+00,1.693200e+00,-1.531900e-01,-7.369400e-01,1.107200e+01
-1.159000e+00,1.678600e+00,-1.531600e-01,-7.369400e-01,1.090400e+01
-2.619200e-01,2.161400e+00,-1.540700e-01,-7.369400e-01,1.011800e+01
-3.192200e-01,2.187400e+00,-1.541200e-01,-7.369400e-01,1.031500e+01
-2.183800e+00,2.048200e+00,-1.538600e-01,-7.369400e-01,1.026700e+01
-2.208900e+00,2.110600e+00,-1.539800e-01,-7.369400e-01,1.122600e+01
-2.282600e+00,2.103700e+00,-1.539700e-01,-7.369400e-01,1.124500e+01
-2.381900e+00,2.048400e+00,-1.538600e-01,-7.369400e-01,1.005500e+01
-7.683100e-01,1.273100e+00,-1.524000e-01,-7.049000e-01,1.040700e+01
-6.630000e-01,1.365300e+00,-1.525700e-01,-7.049000e-01,1.065400e+01
-6.024300e-01,1.454400e+00,-1.527400e-01,-7.049000e-01,1.076200e+01
-5.642300e-01,1.525500e+00,-1.528800e-01,-7.049000e-01,1.031400e+01
-1.076100e+00,1.659900e+00,-1.531300e-01,-7.049000e-01,1.104700e+01
-1.159000e+00,1.636200e+00,-1.530800e-01,-7.049000e-01,1.097500e+01
-1.276900e+00,1.615200e+00,-1.530400e-01,-7.049000e-01,9.885700e+00
-3.143100e-01,2.170900e+00,-1.540900e-01,-7.049000e-01,1.044000e+01
-2.837500e-01,2.224300e+00,-1.541900e-01,-7.049000e-01,1.088900e+01
-2.881200e-01,2.261700e+00,-1.542600e-01,-7.049000e-01,1.043100e+01
-2.256900e+00,2.055800e+00,-1.538800e-01,-7.049000e-01,1.120200e+01
-2.282600e+00,2.106800e+00,-1.539700e-01,-7.049000e-01,1.116300e+01
-6.138900e-01,1.405400e+00,-1.526500e-01,-6.728600e-01,1.020200e+01
-5.898800e-01,1.462700e+00,-1.527600e-01,-6.728600e-01,1.028900e+01
-1.060200e+00,1.682200e+00,-1.531700e-01,-6.728600e-01,1.039000e+01
-1.159000e+00,1.652300e+00,-1.531100e-01,-6.728600e-01,1.059700e+01
3.437800e-01,2.058000e+00,-1.538800e-01,-6.728600e-01,1.014000e+01
-2.120500e+00,8.255000e-01,-1.515600e-01,-6.728600e-01,1.033400e+01
-2.115000e+00,9.480200e-01,-1.517900e-01,-6.728600e-01,1.060800e+01
-2.226900e+00,2.927300e+00,-1.555200e-01,-6.728600e-01,1.001300e+01
-6.138900e-01,1.405900e+00,-1.526500e-01,-6.408200e-01,9.571100e+00
-6.526300e-01,1.434500e+00,-1.527000e-01,-6.408200e-01,9.777800e+00
-3.162200e-01,2.020900e+00,-1.538100e-01,-6.408200e-01,9.932100e+00
-1.974300e+00,1.224700e+00,-1.523100e-01,-6.408200e-01,1.071700e+01
-2.040800e+00,1.189200e+00,-1.522400e-01,-6.408200e-01,1.108400e+01
-2.070800e+00,1.214500e+00,-1.522900e-01,-6.408200e-01,1.036900e+01
-5.402200e-01,1.454900e+00,-1.527400e-01,-6.087800e-01,9.967800e+00
-5.773300e-01,1.488600e+00,-1.528100e-01,-6.087800e-01,1.010800e+01
-1.919400e+00,1.332400e+00,-1.525100e-01,-6.087800e-01,1.100700e+01
-1.966600e+00,1.319100e+00,-1.524900e-01,-6.087800e-01,1.115600e+01
-4.911100e-01,1.476400e+00,-1.527800e-01,-5.767400e-01,9.969600e+00
-5.396700e-01,1.512600e+00,-1.528500e-01,-5.767400e-01,9.966200e+00
-1.828000e+00,1.444000e+00,-1.527200e-01,-5.767400e-01,1.013000e+01
-1.929500e+00,1.380200e+00,-1.526000e-01,-5.767400e-01,1.030400e+01
-4.272600e-01,7.332400e-01,-1.513800e-01,-4.806200e-01,1.001700e+01
-4.507300e-01,7.605500e-01,-1.514300e-01,-4.806200e-01,1.073900e+01
-4.747400e-01,7.853600e-01,-1.514800e-01,-4.806200e-01,1.045800e+01
-2.414600e+00,4.646700e+00,-1.587600e-01,-4.806200e-01,1.093800e+01
-2.430700e+00,4.677400e+00,-1.588200e-01,-4.806200e-01,1.226300e+01
-2.488300e+00,4.687700e+00,-1.588400e-01,-4.806200e-01,1.262500e+01
-2.504700e+00,4.719600e+00,-1.589000e-01,-4.806200e-01,1.210100e+01
-2.647100e+00,4.673700e+00,-1.588100e-01,-4.806200e-01,1.089100e+01
-6.357100e-01,8.111600e+00,-1.652900e-01,-4.806200e-01,1.048100e+01
-7.022900e-01,8.140500e+00,-1.653400e-01,-4.806200e-01,1.076900e+01
-8.976400e-01,8.134200e+00,-1.653300e-01,-4.806200e-01,9.882600e+00
-2.373700e+00,4.664400e+00,-1.587900e-01,-4.485700e-01,1.150800e+01
-2.513100e+00,4.636000e+00,-1.587400e-01,-4.485700e-01,1.260200e+01
-2.529800e+00,4.664500e+00,-1.587900e-01,-4.485700e-01,1.300600e+01
-2.462900e+00,4.740500e+00,-1.589400e-01,-4.485700e-01,1.308500e+01
-2.479000e+00,4.772500e+00,-1.590000e-01,-4.485700e-01,1.260600e+01
-2.579700e+00,4.758800e+00,-1.589700e-01,-4.485700e-01,1.125700e+01
-6.357100e-01,8.109300e+00,-1.652900e-01,-4.485700e-01,1.163100e+01
-7.022900e-01,8.139500e+00,-1.653400e-01,-4.485700e-01,1.218700e+01
-7.694000e-01,8.169600e+00,-1.654000e-01,-4.485700e-01,1.160400e+01
-2.154600e+00,4.722600e+00,-1.589000e-01,-4.165300e-01,1.007100e+01
-2.291800e+00,4.710100e+00,-1.588800e-01,-4.165300e-01,1.206600e+01
-2.389500e+00,4.700900e+00,-1.588600e-01,-4.165300e-01,1.282000e+01
-2.654200e+00,4.596100e+00,-1.586600e-01,-4.165300e-01,1.173400e+01
-2.421200e+00,4.762900e+00,-1.589800e-01,-4.165300e-01,1.275100e+01
-2.479000e+00,4.772800e+00,-1.590000e-01,-4.165300e-01,1.298600e+01
-2.579700e+00,4.758900e+00,-1.589700e-01,-4.165300e-01,1.180200e+01
-6.992800e-01,8.105600e+00,-1.652800e-01,-4.165300e-01,1.105300e+01
-7.022900e-01,8.140000e+00,-1.653400e-01,-4.165300e-01,1.165300e+01
-7.052900e-01,8.173900e+00,-1.654100e-01,-4.165300e-01,1.117500e+01
-2.291800e+00,4.710500e+00,-1.588800e-01,-3.844900e-01,1.130900e+01
-2.348300e+00,4.721700e+00,-1.589000e-01,-3.844900e-01,1.217300e+01
-2.405300e+00,4.732100e+00,-1.589200e-01,-3.844900e-01,1.136300e+01
-2.421200e+00,4.761900e+00,-1.589800e-01,-3.844900e-01,1.100400e+01
-2.479000e+00,4.772400e+00,-1.590000e-01,-3.844900e-01,1.174300e+01
-2.622000e+00,4.733400e+00,-1.589200e-01,-3.844900e-01,1.054300e+01
0,0,-1.500000e-01,-1.602100e-01,9.701400e+00
5.391300e-01,7.183600e-01,-1.513500e-01,-1.602100e-01,1.082700e+01
5.377600e-01,6.893400e-01,-1.513000e-01,-1.602100e-01,1.189600e+01
5.424000e-01,6.789200e-01,-1.512800e-01,-1.602100e-01,1.211400e+01
5.459500e-01,7.370500e-01,-1.513900e-01,-1.602100e-01,1.135700e+01
5.484000e-01,8.675500e-01,-1.516400e-01,-1.602100e-01,1.023900e+01
0,0,-1.500000e-01,-1.281600e-01,9.570800e+00
5.525000e-01,6.532400e-01,-1.512300e-01,-1.281600e-01,9.800600e+00
5.533200e-01,6.998000e-01,-1.513200e-01,-1.281600e-01,1.102600e+01
5.525000e-01,5.424500e-01,-1.510200e-01,-1.281600e-01,1.150500e+01
4.278100e-01,7.457800e-01,-1.514100e-01,-1.281600e-01,1.177100e+01
4.668300e-01,7.876300e-01,-1.514800e-01,-1.281600e-01,1.178600e+01
5.156600e-01,7.860100e-01,-1.514800e-01,-1.281600e-01,1.112500e+01
-8.545300e-01,7.631200e-01,-1.514400e-01,-1.281600e-01,9.998700e+00
0,0,-1.500000e-01,-9.612300e-02,9.472700e+00
4.911100e-01,5.628000e-01,-1.510600e-01,-9.612300e-02,9.489300e+00
4.114400e-01,2.481300e-02,-1.500500e-01,-9.612300e-02,1.065200e+01
2.799300e-01,4.872000e-01,-1.509200e-01,-9.612300e-02,1.192200e+01
6.035200e-01,7.675800e-01,-1.514500e-01,-9.612300e-02,1.262100e+01
5.696900e-01,8.003600e-01,-1.515100e-01,-9.612300e-02,1.290000e+01
5.647800e-01,8.125300e-01,-1.515300e-01,-9.612300e-02,1.218300e+01
-7.606700e-01,8.006100e-01,-1.515100e-01,-9.612300e-02,1.019500e+01
-8.307900e-01,8.915600e-01,-1.516800e-01,-9.612300e-02,1.079800e+01
-8.643500e-01,8.617800e-01,-1.516200e-01,-9.612300e-02,1.103000e+01
-8.984600e-01,7.397200e-01,-1.513900e-01,-9.612300e-02,1.070800e+01
0,0,-1.500000e-01,-6.408200e-02,1.025300e+01
5.320300e-01,7.260300e-01,-1.513700e-01,-6.408200e-02,1.071000e+01
5.598600e-01,7.529300e-01,-1.514200e-01,-6.408200e-02,1.236500e+01
5.806000e-01,7.677900e-01,-1.514500e-01,-6.408200e-02,1.296800e+01
5.855100e-01,7.960400e-01,-1.515000e-01,-6.408200e-02,1.268800e+01
5.811500e-01,8.371300e-01,-1.515800e-01,-6.408200e-02,1.155000e+01
6.111600e-01,8.808200e-01,-1.516600e-01,-6.408200e-02,1.042200e+01
5.852400e-01,9.354300e-01,-1.517600e-01,-6.408200e-02,1.052400e+01
-7.792300e-01,8.110200e-01,-1.515300e-01,-6.408200e-02,1.103400e+01
-8.498900e-01,8.502200e-01,-1.516000e-01,-6.408200e-02,1.198500e+01
-8.840000e-01,8.098400e-01,-1.515300e-01,-6.408200e-02,1.240900e+01
-9.287400e-01,7.666100e-01,-1.514500e-01,-6.408200e-02,1.196100e+01
-9.642100e-01,6.964900e-01,-1.513100e-01,-6.408200e-02,1.008500e+01
0,0,-1.500000e-01,-3.204100e-02,1.578300e+01
-4.092600e-02,1.689600e-02,-1.500300e-01,-3.204100e-02,1.516400e+01
-7.312100e-02,6.388900e-02,-1.501200e-01,-3.204100e-02,1.431700e+01
-1.091400e-02,1.323700e-01,-1.502500e-01,-3.204100e-02,1.348600e+01
-3.274100e-03,1.357400e-01,-1.502600e-01,-3.204100e-02,1.264000e+01
1.145900e-02,1.807300e-01,-1.503400e-01,-3.204100e-02,1.197900e+01
5.456800e-01,6.683900e-01,-1.512600e-01,-3.204100e-02,1.307900e+01
5.533200e-01,7.189900e-01,-1.513600e-01,-3.204100e-02,1.471900e+01
5.598600e-01,7.403300e-01,-1.514000e-01,-3.204100e-02,1.536700e+01
5.729600e-01,7.363100e-01,-1.513900e-01,-3.204100e-02,1.517900e+01
5.696900e-01,7.426000e-01,-1.514000e-01,-3.204100e-02,1.416100e+01
5.729600e-01,8.216900e-01,-1.515500e-01,-3.204100e-02,1.229400e+01
6.302600e-01,8.613200e-01,-1.516200e-01,-3.204100e-02,1.055800e+01
-8.348900e-01,5.204300e-01,-1.509800e-01,-3.204100e-02,1.196600e+01
-8.689900e-01,5.266900e-01,-1.509900e-01,-3.204100e-02,1.372200e+01
-9.036400e-01,5.887300e-01,-1.511100e-01,-3.204100e-02,1.414300e+01
-9.489300e-01,6.289900e-01,-1.511900e-01,-3.204100e-02,1.336300e+01
-1.057500e+00,5.531600e-01,-1.510400e-01,-3.204100e-02,1.110500e+01
-1.032100e+00,7.171200e-01,-1.513500e-01,-3.204100e-02,1.108400e+01
-1.080400e+00,7.482200e-01,-1.514100e-01,-3.204100e-02,9.918200e+00
