0,0,-1.500000e-01,0,1.678100e+01
-7.202900e-02,6.834500e-02,-1.498300e-01,0,1.533200e+01
-1.364200e-02,1.295500e-01,-1.496700e-01,0,1.446800e+01
-4.911100e-03,1.299100e-01,-1.496700e-01,0,1.361500e+01
1.336900e-02,1.761300e-01,-1.495600e-01,0,1.298300e+01
2.592000e-01,1.677900e-01,-1.495800e-01,0,1.334900e+01
5.675000e-01,7.082600e-01,-1.482200e-01,0,1.466700e+01
5.819600e-01,7.407200e-01,-1.481400e-01,0,1.522700e+01
6.035200e-01,7.667600e-01,-1.480700e-01,0,1.495600e+01
6.092500e-01,8.074700e-01,-1.479700e-01,0,1.379800e+01
5.402200e-01,8.725800e-01,-1.478100e-01,0,1.270200e+01
-7.050100e-01,6.769900e-01,-1.483000e-01,0,1.194000e+01
-9.549300e-01,5.149500e-01,-1.487100e-01,0,1.312500e+01
-9.134600e-01,4.687200e-01,-1.488200e-01,0,1.358100e+01
-1.016000e+00,7.685300e-01,-1.480700e-01,0,1.216700e+01
-1.021500e+00,7.987200e-01,-1.479900e-01,0,1.197200e+01
-1.069500e+00,8.553700e-01,-1.478500e-01,0,1.051000e+01
0,0,-1.500000e-01,3.204100e-02,1.579100e+01
-7.202900e-02,7.119000e-02,-1.498200e-01,3.204100e-02,1.430900e+01
-1.364200e-02,1.307800e-01,-1.496700e-01,3.204100e-02,1.345600e+01
-4.911100e-03,1.320300e-01,-1.496700e-01,3.204100e-02,1.262300e+01
1.527900e-02,1.824000e-01,-1.495400e-01,3.204100e-02,1.196000e+01
2.592000e-01,2.186800e-01,-1.494500e-01,3.204100e-02,1.228800e+01
5.675000e-01,7.072600e-01,-1.482200e-01,3.204100e-02,1.357500e+01
5.819600e-01,7.415900e-01,-1.481400e-01,3.204100e-02,1.405500e+01
6.035200e-01,7.683200e-01,-1.480700e-01,3.204100e-02,1.367900e+01
5.776000e-01,8.275500e-01,-1.479200e-01,3.204100e-02,1.252000e+01
5.402200e-01,8.811900e-01,-1.477900e-01,3.204100e-02,1.188100e+01
-1.484200e-01,1.150500e+00,-1.471100e-01,3.204100e-02,1.125300e+01
-9.167400e-01,4.603200e-01,-1.488400e-01,3.204100e-02,1.248400e+01
-9.134600e-01,4.672700e-01,-1.488300e-01,3.204100e-02,1.286500e+01
-1.005700e+00,7.048700e-01,-1.482300e-01,3.204100e-02,1.122900e+01
-1.032100e+00,7.880900e-01,-1.480200e-01,3.204100e-02,1.114100e+01
0,0,-1.500000e-01,6.408200e-02,1.001200e+01
5.107500e-01,6.886100e-01,-1.482700e-01,6.408200e-02,9.968500e+00
5.451300e-01,7.354400e-01,-1.481500e-01,6.408200e-02,1.126300e+01
5.653200e-01,7.675200e-01,-1.480700e-01,6.408200e-02,1.183300e+01
5.776000e-01,8.166200e-01,-1.479500e-01,6.408200e-02,1.123000e+01
-8.880900e-01,5.107300e-01,-1.487200e-01,6.408200e-02,9.810700e+00
-1.011700e+00,6.521300e-01,-1.483600e-01,6.408200e-02,9.860100e+00
0,0,-1.500000e-01,9.612300e-02,9.866900e+00
5.525000e-01,7.032100e-01,-1.482300e-01,9.612300e-02,1.017500e+01
5.653200e-01,7.362100e-01,-1.481500e-01,9.612300e-02,1.082300e+01
5.855100e-01,7.824800e-01,-1.480300e-01,9.612300e-02,1.010300e+01
0,0,-1.500000e-01,-7.689800e-01,9.487900e+00
3.132200e-01,1.373100e+00,-1.465500e-01,-7.689800e-01,1.010600e+01
2.979400e-01,1.405600e+00,-1.464700e-01,-7.689800e-01,1.024500e+01
3.961600e-01,4.331200e-01,-1.489100e-01,-5.447000e-01,1.038400e+01
4.204400e-01,4.723900e-01,-1.488100e-01,-5.447000e-01,1.070300e+01
4.452700e-01,5.036900e-01,-1.487300e-01,-5.447000e-01,1.040500e+01
4.706500e-01,5.185700e-01,-1.487000e-01,-5.447000e-01,9.561000e+00
4.078900e-01,4.310000e-01,-1.489200e-01,-3.844900e-01,9.701800e+00
4.518200e-01,5.665000e-01,-1.485800e-01,-3.844900e-01,9.661800e+00
-7.554900e-01,1.094100e+00,-1.472500e-01,-3.844900e-01,9.698100e+00
-7.966900e-01,7.363100e-01,-1.481500e-01,-3.844900e-01,9.902600e+00
-8.709000e-01,7.010600e-01,-1.482400e-01,-3.844900e-01,9.618300e+00
3.901600e-01,4.346600e-01,-1.489100e-01,-3.524500e-01,1.059600e+01
4.141700e-01,5.055600e-01,-1.487300e-01,-3.524500e-01,1.117300e+01
4.452700e-01,5.475100e-01,-1.486200e-01,-3.524500e-01,1.096800e+01
4.842900e-01,6.104400e-01,-1.484700e-01,-3.524500e-01,1.008600e+01
-5.634100e-01,9.325100e-01,-1.476600e-01,-3.524500e-01,1.085100e+01
-5.991500e-01,1.024900e+00,-1.474200e-01,-3.524500e-01,1.176300e+01
-6.258900e-01,1.071300e+00,-1.473100e-01,-3.524500e-01,1.174800e+01
-6.531700e-01,1.096900e+00,-1.472400e-01,-3.524500e-01,1.089500e+01
-7.235700e-01,1.019900e+00,-1.474400e-01,-3.524500e-01,9.870900e+00
-8.076000e-01,8.070900e-01,-1.479700e-01,-3.524500e-01,9.866000e+00
3.841600e-01,4.117600e-01,-1.489700e-01,-3.204100e-01,9.695500e+00
4.204400e-01,5.056600e-01,-1.487300e-01,-3.204100e-01,1.031800e+01
4.518200e-01,5.398500e-01,-1.486400e-01,-3.204100e-01,1.056800e+01
4.911100e-01,5.735300e-01,-1.485600e-01,-3.204100e-01,9.961500e+00
-5.920600e-01,9.493100e-01,-1.476100e-01,-3.204100e-01,1.105700e+01
-6.188000e-01,1.024200e+00,-1.474300e-01,-3.204100e-01,1.198300e+01
-6.359900e-01,1.070200e+00,-1.473100e-01,-3.204100e-01,1.199500e+01
-6.635400e-01,1.098300e+00,-1.472400e-01,-3.204100e-01,1.110100e+01
0,0,-1.500000e-01,-1.281600e-01,9.806400e+00
-5.729600e-03,3.381200e-02,-1.499200e-01,-1.281600e-01,9.408400e+00
4.452700e-01,5.958400e-01,-1.485000e-01,-1.281600e-01,9.594200e+00
4.979300e-01,6.405700e-01,-1.483900e-01,-1.281600e-01,1.018600e+01
5.462200e-01,6.826900e-01,-1.482800e-01,-1.281600e-01,1.069300e+01
5.746000e-01,7.121700e-01,-1.482100e-01,-1.281600e-01,1.097000e+01
6.035200e-01,7.056200e-01,-1.482300e-01,-1.281600e-01,1.072600e+01
6.250700e-01,6.104500e-01,-1.484700e-01,-1.281600e-01,9.758800e+00
0,0,-1.500000e-01,-9.612300e-02,9.796500e+00
1.691600e-02,9.414300e-03,-1.499800e-01,-9.612300e-02,9.533400e+00
4.021600e-01,4.765700e-01,-1.488000e-01,-9.612300e-02,9.683000e+00
4.016200e-01,5.231400e-01,-1.486900e-01,-9.612300e-02,9.792000e+00
4.387200e-01,5.771400e-01,-1.485500e-01,-9.612300e-02,9.923900e+00
5.183900e-01,6.450800e-01,-1.483800e-01,-9.612300e-02,1.042300e+01
5.533200e-01,6.968300e-01,-1.482500e-01,-9.612300e-02,1.126600e+01
5.672300e-01,7.288100e-01,-1.481700e-01,-9.612300e-02,1.184300e+01
5.653200e-01,7.371000e-01,-1.481500e-01,-9.612300e-02,1.201600e+01
5.617700e-01,7.208700e-01,-1.481900e-01,-9.612300e-02,1.163300e+01
5.647800e-01,7.093500e-01,-1.482200e-01,-9.612300e-02,1.051500e+01
0,0,-1.500000e-01,-6.408200e-02,1.058800e+01
-3.355900e-02,5.549500e-03,-1.499900e-01,-6.408200e-02,1.016900e+01
4.078900e-01,5.209900e-01,-1.486900e-01,-6.408200e-02,9.371500e+00
4.190800e-01,5.097500e-01,-1.487200e-01,-6.408200e-02,9.427500e+00
5.816900e-01,6.971300e-01,-1.482500e-01,-6.408200e-02,1.116000e+01
5.819600e-01,7.399200e-01,-1.481400e-01,-6.408200e-02,1.192800e+01
5.729600e-01,7.618000e-01,-1.480900e-01,-6.408200e-02,1.230000e+01
5.617700e-01,7.585600e-01,-1.480900e-01,-6.408200e-02,1.205800e+01
5.647800e-01,7.624300e-01,-1.480800e-01,-6.408200e-02,1.090800e+01
-8.447100e-01,7.624200e-01,-1.480800e-01,-6.408200e-02,1.000700e+01
-8.681700e-01,7.579400e-01,-1.481000e-01,-6.408200e-02,9.832500e+00
0,0,-1.500000e-01,-3.204100e-02,1.575100e+01
-7.202900e-02,6.606500e-02,-1.498300e-01,-3.204100e-02,1.431900e+01
-1.364200e-02,1.278000e-01,-1.496800e-01,-3.204100e-02,1.345600e+01
-4.911100e-03,1.243900e-01,-1.496900e-01,-3.204100e-02,1.253600e+01
1.336900e-02,1.684000e-01,-1.495800e-01,-3.204100e-02,1.197100e+01
2.660200e-01,5.434800e-02,-1.498600e-01,-3.204100e-02,1.241900e+01
5.675000e-01,7.080500e-01,-1.482200e-01,-3.204100e-02,1.372700e+01
5.819600e-01,7.408300e-01,-1.481400e-01,-3.204100e-02,1.432200e+01
6.035200e-01,7.659600e-01,-1.480700e-01,-3.204100e-02,1.410300e+01
6.171600e-01,7.978000e-01,-1.479900e-01,-3.204100e-02,1.301900e+01
5.565900e-01,8.541600e-01,-1.478500e-01,-3.204100e-02,1.196900e+01
-7.606700e-01,8.048400e-01,-1.479800e-01,-3.204100e-02,1.055700e+01
-9.740300e-01,5.019200e-01,-1.487400e-01,-3.204100e-02,1.174000e+01
-9.232800e-01,4.043900e-01,-1.489800e-01,-3.204100e-02,1.217900e+01
-1.026400e+00,8.018000e-01,-1.479800e-01,-3.204100e-02,1.123000e+01
-1.032100e+00,8.278500e-01,-1.479200e-01,-3.204100e-02,1.088900e+01
