0,0,-1.500000e-01,0,1.678500e+01
-4.092600e-02,2.392000e-02,-1.499900e-01,0,1.618200e+01
-7.312100e-02,6.595200e-02,-1.499700e-01,0,1.532000e+01
-1.091400e-02,1.341100e-01,-1.499400e-01,0,1.451000e+01
-4.911100e-03,1.360400e-01,-1.499400e-01,0,1.364700e+01
9.549300e-03,1.764400e-01,-1.499300e-01,0,1.302400e+01
5.525000e-01,6.581300e-01,-1.497200e-01,0,1.414100e+01
5.533200e-01,7.189300e-01,-1.497000e-01,0,1.583800e+01
5.672300e-01,7.398000e-01,-1.496900e-01,0,1.651500e+01
5.958800e-01,7.471000e-01,-1.496900e-01,0,1.615100e+01
4.035300e-01,9.060200e-01,-1.496200e-01,0,1.436500e+01
4.992900e-01,8.122300e-01,-1.496600e-01,0,1.439000e+01
5.836000e-01,8.503300e-01,-1.496400e-01,0,1.351500e+01
6.024300e-01,8.894300e-01,-1.496300e-01,0,1.153700e+01
-9.740300e-01,6.015300e-01,-1.497500e-01,0,1.289200e+01
-9.331100e-01,6.313600e-01,-1.497400e-01,0,1.379300e+01
-9.590300e-01,6.438700e-01,-1.497300e-01,0,1.322800e+01
-1.036800e+00,7.260200e-01,-1.497000e-01,0,1.207600e+01
-1.053400e+00,7.643900e-01,-1.496800e-01,0,1.163400e+01
0,0,-1.500000e-01,3.204100e-02,1.579100e+01
-4.092600e-02,2.646800e-02,-1.499900e-01,3.204100e-02,1.517000e+01
-7.312100e-02,6.712100e-02,-1.499700e-01,3.204100e-02,1.431700e+01
-1.091400e-02,1.360700e-01,-1.499400e-01,3.204100e-02,1.350800e+01
-4.911100e-03,1.377400e-01,-1.499400e-01,3.204100e-02,1.262800e+01
9.549300e-03,1.785300e-01,-1.499300e-01,3.204100e-02,1.197600e+01
5.525000e-01,6.573200e-01,-1.497200e-01,3.204100e-02,1.314200e+01
5.533200e-01,7.194900e-01,-1.497000e-01,3.204100e-02,1.485900e+01
5.672300e-01,7.430300e-01,-1.496900e-01,3.204100e-02,1.552400e+01
5.958800e-01,7.487200e-01,-1.496900e-01,3.204100e-02,1.509500e+01
3.877000e-01,7.140300e-01,-1.497000e-01,3.204100e-02,1.394600e+01
4.665500e-01,7.787900e-01,-1.496700e-01,3.204100e-02,1.360000e+01
6.005200e-01,8.399000e-01,-1.496500e-01,3.204100e-02,1.278100e+01
6.286200e-01,8.662600e-01,-1.496400e-01,3.204100e-02,1.087400e+01
-1.126800e+00,3.934100e-01,-1.498400e-01,3.204100e-02,1.163400e+01
-9.822200e-01,6.090100e-01,-1.497400e-01,3.204100e-02,1.240400e+01
-9.994100e-01,6.180900e-01,-1.497400e-01,3.204100e-02,1.193400e+01
-1.078300e+00,6.590600e-01,-1.497200e-01,3.204100e-02,1.072800e+01
-1.064100e+00,7.918600e-01,-1.496700e-01,3.204100e-02,1.055900e+01
1.590600e+00,9.066800e-01,-1.496200e-01,3.204100e-02,9.640400e+00
0,0,-1.500000e-01,6.408200e-02,1.057900e+01
-3.274100e-02,1.183800e-02,-1.500000e-01,6.408200e-02,1.010100e+01
4.387200e-01,5.581100e-01,-1.497700e-01,6.408200e-02,9.820800e+00
2.979400e-01,1.441500e-01,-1.499400e-01,6.408200e-02,1.118300e+01
3.020300e-01,2.400500e-01,-1.499000e-01,6.408200e-02,1.254900e+01
3.514200e-01,4.314000e-01,-1.498200e-01,6.408200e-02,1.316600e+01
4.114400e-01,5.899300e-01,-1.497500e-01,6.408200e-02,1.357600e+01
4.665500e-01,6.855100e-01,-1.497100e-01,6.408200e-02,1.335600e+01
5.497700e-01,7.654000e-01,-1.496800e-01,6.408200e-02,1.242700e+01
6.198900e-01,9.117300e-01,-1.496200e-01,6.408200e-02,1.071800e+01
6.842800e-01,7.871800e-01,-1.496700e-01,6.408200e-02,9.904700e+00
-6.207100e-01,8.458400e-01,-1.496500e-01,6.408200e-02,1.003000e+01
-7.464900e-01,9.171300e-01,-1.496200e-01,6.408200e-02,1.022700e+01
-8.479800e-01,9.749700e-01,-1.495900e-01,6.408200e-02,1.034800e+01
0,0,-1.500000e-01,9.612300e-02,1.037800e+01
-2.259100e-01,5.246600e-01,-1.497800e-01,9.612300e-02,9.960000e+00
-2.384600e-01,5.400500e-01,-1.497700e-01,9.612300e-02,9.573700e+00
3.263100e-01,3.889700e-01,-1.498400e-01,9.612300e-02,1.011700e+01
4.965700e-01,7.469000e-01,-1.496900e-01,9.612300e-02,1.269100e+01
5.143000e-01,7.583600e-01,-1.496800e-01,9.612300e-02,1.328300e+01
5.402200e-01,7.756000e-01,-1.496800e-01,9.612300e-02,1.332800e+01
5.666900e-01,7.965100e-01,-1.496700e-01,9.612300e-02,1.264400e+01
5.937000e-01,8.311700e-01,-1.496500e-01,9.612300e-02,1.067500e+01
-8.348900e-01,9.013800e-01,-1.496200e-01,9.612300e-02,9.965200e+00
-2.308200e-01,5.424000e-01,-1.497700e-01,1.281600e-01,9.633600e+00
6.111600e-01,7.614700e-01,-1.496800e-01,1.281600e-01,1.185000e+01
6.092500e-01,8.013900e-01,-1.496600e-01,1.281600e-01,1.265900e+01
6.057000e-01,8.184400e-01,-1.496600e-01,1.281600e-01,1.266000e+01
6.005200e-01,8.317100e-01,-1.496500e-01,1.281600e-01,1.185400e+01
6.111600e-01,9.110600e-01,-1.496200e-01,1.281600e-01,9.923800e+00
-2.701100e-01,4.903100e-01,-1.497900e-01,1.602100e-01,9.507000e+00
6.035200e-01,7.660700e-01,-1.496800e-01,1.602100e-01,1.094800e+01
6.092500e-01,7.864900e-01,-1.496700e-01,1.602100e-01,1.149200e+01
6.057000e-01,7.800400e-01,-1.496700e-01,1.602100e-01,1.148400e+01
6.089800e-01,8.090200e-01,-1.496600e-01,1.602100e-01,1.069800e+01
7.748600e-02,2.477300e+00,-1.489600e-01,-1.057400e+00,1.052600e+01
5.893300e-02,2.513100e+00,-1.489500e-01,-1.057400e+00,1.075100e+01
7.514000e-01,2.724800e+00,-1.488600e-01,-9.932700e-01,1.026000e+01
6.935500e-01,2.767800e+00,-1.488400e-01,-9.932700e-01,1.087200e+01
7.020100e-01,2.780200e+00,-1.488400e-01,-9.932700e-01,1.054600e+01
0,0,-1.500000e-01,-9.612300e-01,9.452200e+00
-4.482700e-01,1.675700e+00,-1.493000e-01,-9.612300e-01,1.074900e+01
-4.567300e-01,1.745600e+00,-1.492700e-01,-9.612300e-01,1.133500e+01
-4.651900e-01,1.796500e+00,-1.492500e-01,-9.612300e-01,1.100300e+01
-7.464900e-01,1.843000e+00,-1.492300e-01,-9.612300e-01,1.005900e+01
-7.595800e-01,1.867000e+00,-1.492200e-01,-9.612300e-01,1.132400e+01
-7.887800e-01,1.887400e+00,-1.492100e-01,-9.612300e-01,1.184300e+01
-8.348900e-01,1.905100e+00,-1.492000e-01,-9.612300e-01,1.165200e+01
-1.015200e+00,1.844300e+00,-1.492300e-01,-9.612300e-01,1.101400e+01
-1.185500e+00,2.486800e+00,-1.489600e-01,-9.612300e-01,1.027800e+01
-1.244100e+00,2.482500e+00,-1.489600e-01,-9.612300e-01,1.022200e+01
7.956000e-01,2.711900e+00,-1.488600e-01,-9.612300e-01,1.007800e+01
7.383000e-01,2.754800e+00,-1.488500e-01,-9.612300e-01,1.018400e+01
-1.489400e+00,3.256400e+00,-1.486400e-01,-9.612300e-01,1.013300e+01
-1.519200e+00,3.755500e+00,-1.484300e-01,-9.612300e-01,1.028200e+01
-1.596100e+00,3.754900e+00,-1.484300e-01,-9.612300e-01,1.069200e+01
-2.253600e-01,4.093900e+00,-1.482900e-01,-9.612300e-01,1.051200e+01
-1.623400e-01,4.090500e+00,-1.482900e-01,-9.612300e-01,1.015100e+01
-1.571500e+00,3.872100e+00,-1.483800e-01,-9.612300e-01,1.016000e+01
1.493800e+00,7.500800e+00,-1.468600e-01,-9.612300e-01,1.006100e+01
-6.039000e+00,5.561300e+00,-1.476700e-01,-9.612300e-01,1.001700e+01
-4.338100e-01,1.707400e+00,-1.492800e-01,-9.291900e-01,1.092100e+01
-4.567300e-01,1.774900e+00,-1.492600e-01,-9.291900e-01,1.159500e+01
-4.802000e-01,1.817200e+00,-1.492400e-01,-9.291900e-01,1.126500e+01
-5.653200e-01,1.852900e+00,-1.492200e-01,-9.291900e-01,9.865200e+00
-7.309300e-01,1.848400e+00,-1.492300e-01,-9.291900e-01,1.022300e+01
-7.912300e-01,1.851700e+00,-1.492200e-01,-9.291900e-01,1.146700e+01
-8.209700e-01,1.871900e+00,-1.492200e-01,-9.291900e-01,1.197600e+01
-8.676300e-01,1.892200e+00,-1.492100e-01,-9.291900e-01,1.170500e+01
-1.098400e+00,1.789600e+00,-1.492500e-01,-9.291900e-01,1.091000e+01
-1.251800e+00,1.728000e+00,-1.492800e-01,-9.291900e-01,1.048800e+01
-1.163900e+00,2.484900e+00,-1.489600e-01,-9.291900e-01,1.055100e+01
-1.200500e+00,2.490700e+00,-1.489600e-01,-9.291900e-01,1.046800e+01
-1.568800e+00,3.696900e+00,-1.484500e-01,-9.291900e-01,1.031800e+01
-1.550800e+00,3.742300e+00,-1.484300e-01,-9.291900e-01,1.158100e+01
-1.596100e+00,3.759300e+00,-1.484300e-01,-9.291900e-01,1.187500e+01
-1.641900e+00,3.757300e+00,-1.484300e-01,-9.291900e-01,1.115700e+01
-2.823600e+00,3.596400e+00,-1.484900e-01,-9.291900e-01,1.030000e+01
-2.845200e+00,3.618800e+00,-1.484800e-01,-9.291900e-01,1.064300e+01
-2.757800e+00,3.700800e+00,-1.484500e-01,-9.291900e-01,1.054800e+01
-2.280900e+00,4.751500e+00,-1.480100e-01,-9.291900e-01,1.015700e+01
-2.337700e+00,4.784900e+00,-1.480000e-01,-9.291900e-01,1.042200e+01
-4.048900e-01,1.767300e+00,-1.492600e-01,-8.971500e-01,1.008600e+01
-4.272600e-01,1.799400e+00,-1.492500e-01,-8.971500e-01,1.076900e+01
-4.651900e-01,1.827100e+00,-1.492300e-01,-8.971500e-01,1.048400e+01
-7.931400e-01,1.796200e+00,-1.492500e-01,-8.971500e-01,1.061200e+01
-8.228800e-01,1.826400e+00,-1.492300e-01,-8.971500e-01,1.175400e+01
-8.370700e-01,1.863200e+00,-1.492200e-01,-8.971500e-01,1.194800e+01
-8.840000e-01,1.892600e+00,-1.492100e-01,-8.971500e-01,1.123300e+01
3.874300e-02,2.431200e+00,-1.489800e-01,-8.971500e-01,1.056700e+01
-1.964400e-02,2.484500e+00,-1.489600e-01,-8.971500e-01,1.070700e+01
1.555200e+00,3.124600e+00,-1.486900e-01,-8.971500e-01,1.051700e+01
1.543200e+00,3.171600e+00,-1.486700e-01,-8.971500e-01,1.083700e+01
-1.447100e+00,3.249900e+00,-1.486400e-01,-8.971500e-01,1.113600e+01
-1.489400e+00,3.272900e+00,-1.486300e-01,-8.971500e-01,1.139700e+01
-1.503900e+00,3.305800e+00,-1.486200e-01,-8.971500e-01,1.062000e+01
-1.550800e+00,3.741800e+00,-1.484300e-01,-8.971500e-01,1.169400e+01
-1.596100e+00,3.759300e+00,-1.484300e-01,-8.971500e-01,1.197300e+01
-1.641900e+00,3.763500e+00,-1.484200e-01,-8.971500e-01,1.126800e+01
-2.895100e+00,3.528300e+00,-1.485200e-01,-8.971500e-01,1.102600e+01
-2.917200e+00,3.565500e+00,-1.485100e-01,-8.971500e-01,1.153900e+01
-2.903000e+00,3.617000e+00,-1.484800e-01,-8.971500e-01,1.114600e+01
-2.421200e+00,4.746900e+00,-1.480100e-01,-8.971500e-01,1.020300e+01
-4.398200e+00,3.097900e+00,-1.487000e-01,-8.971500e-01,1.009700e+01
-2.799300e+00,8.970700e+00,-1.462400e-01,-8.971500e-01,1.032100e+01
-7.931400e-01,1.793400e+00,-1.492500e-01,-8.651100e-01,1.116100e+01
-8.070600e-01,1.829400e+00,-1.492300e-01,-8.651100e-01,1.196200e+01
-8.370700e-01,1.861700e+00,-1.492200e-01,-8.651100e-01,1.188800e+01
-9.167400e-01,1.875300e+00,-1.492100e-01,-8.651100e-01,1.099800e+01
-1.228600e+00,2.469100e+00,-1.489700e-01,-8.651100e-01,1.056600e+01
-1.309600e+00,2.465700e+00,-1.489700e-01,-8.651100e-01,1.014600e+01
1.391500e+00,3.175600e+00,-1.486700e-01,-8.651100e-01,1.045300e+01
1.432900e+00,3.214500e+00,-1.486500e-01,-8.651100e-01,1.085000e+01
-1.447100e+00,3.254100e+00,-1.486400e-01,-8.651100e-01,1.140500e+01
-1.489400e+00,3.273500e+00,-1.486300e-01,-8.651100e-01,1.144500e+01
-1.589000e+00,3.263900e+00,-1.486300e-01,-8.651100e-01,1.038100e+01
-1.931700e-01,4.092700e+00,-1.482900e-01,-8.651100e-01,1.043400e+01
-2.966600e+00,3.469800e+00,-1.485500e-01,-8.651100e-01,1.077200e+01
-2.953200e+00,3.537300e+00,-1.485200e-01,-8.651100e-01,1.131900e+01
-3.011900e+00,3.535700e+00,-1.485200e-01,-8.651100e-01,1.078000e+01
-4.327800e+00,3.043200e+00,-1.487300e-01,-8.651100e-01,1.062200e+01
-4.398200e+00,3.092100e+00,-1.487000e-01,-8.651100e-01,1.127000e+01
-4.384000e+00,3.183400e+00,-1.486700e-01,-8.651100e-01,1.078100e+01
-2.873000e+00,8.971300e+00,-1.462400e-01,-8.651100e-01,1.039300e+01
-2.883600e+00,9.004000e+00,-1.462300e-01,-8.651100e-01,1.029000e+01
-9.020000e-01,1.774300e+00,-1.492600e-01,-8.330700e-01,1.040600e+01
-9.178300e-01,1.801200e+00,-1.492500e-01,-8.330700e-01,1.044200e+01
-8.209700e-01,1.854900e+00,-1.492200e-01,-8.330700e-01,1.078000e+01
-8.676300e-01,1.881100e+00,-1.492100e-01,-8.330700e-01,1.040200e+01
-1.694300e+00,1.678900e+00,-1.493000e-01,-8.330700e-01,1.097300e+01
-1.699800e+00,1.740900e+00,-1.492700e-01,-8.330700e-01,1.126300e+01
-1.271700e+00,2.442100e+00,-1.489800e-01,-8.330700e-01,1.071600e+01
-1.244100e+00,2.500000e+00,-1.489500e-01,-8.330700e-01,1.052900e+01
-9.920400e-01,3.384200e+00,-1.485800e-01,-8.330700e-01,1.036800e+01
-2.966600e+00,3.482000e+00,-1.485400e-01,-8.330700e-01,1.108400e+01
-2.989200e+00,3.506800e+00,-1.485300e-01,-8.330700e-01,1.128800e+01
-3.120700e+00,3.436300e+00,-1.485600e-01,-8.330700e-01,1.043900e+01
-4.440400e+00,3.043500e+00,-1.487300e-01,-8.330700e-01,1.068400e+01
-4.341400e+00,3.258500e+00,-1.486400e-01,-8.330700e-01,1.054500e+01
-1.791700e+00,6.712100e+00,-1.471900e-01,-8.330700e-01,1.018200e+01
-2.725700e+00,9.025900e+00,-1.462200e-01,-8.330700e-01,1.027900e+01
-2.957600e+00,8.960600e+00,-1.462500e-01,-8.330700e-01,1.043900e+01
-4.239900e-01,1.340500e+00,-1.494400e-01,-8.010300e-01,1.033800e+01
-4.575500e-01,1.376300e+00,-1.494200e-01,-8.010300e-01,1.086600e+01
-4.802000e-01,1.387700e+00,-1.494200e-01,-8.010300e-01,1.036800e+01
-8.553500e-01,1.782100e+00,-1.492500e-01,-8.010300e-01,1.169400e+01
-8.703500e-01,1.809200e+00,-1.492400e-01,-8.010300e-01,1.224200e+01
-8.853600e-01,1.832700e+00,-1.492300e-01,-8.010300e-01,1.195600e+01
-9.658500e-01,1.822300e+00,-1.492400e-01,-8.010300e-01,1.115100e+01
-1.314800e+00,2.424100e+00,-1.489800e-01,-8.010300e-01,1.091100e+01
-1.287800e+00,2.476100e+00,-1.489600e-01,-8.010300e-01,1.076300e+01
-1.335800e+00,3.296700e+00,-1.486200e-01,-8.010300e-01,1.066600e+01
-1.489400e+00,3.270400e+00,-1.486300e-01,-8.010300e-01,1.110100e+01
-1.532300e+00,3.281400e+00,-1.486300e-01,-8.010300e-01,1.050500e+01
-2.895100e+00,3.541000e+00,-1.485200e-01,-8.010300e-01,1.123500e+01
-2.953200e+00,3.539700e+00,-1.485200e-01,-8.010300e-01,1.142800e+01
-3.120700e+00,3.433300e+00,-1.485600e-01,-8.010300e-01,1.075700e+01
1.547800e+00,6.199900e+00,-1.474000e-01,-8.010300e-01,1.015300e+01
-4.125300e-01,1.292200e+00,-1.494600e-01,-7.689800e-01,9.919400e+00
-4.458200e-01,1.370300e+00,-1.494300e-01,-7.689800e-01,1.098200e+01
-4.561900e-01,1.415800e+00,-1.494100e-01,-7.689800e-01,1.060100e+01
-1.198300e+00,1.754700e+00,-1.492700e-01,-7.689800e-01,1.021500e+01
-1.191800e+00,2.448900e+00,-1.489700e-01,-7.689800e-01,1.039300e+01
-1.271700e+00,2.445900e+00,-1.489800e-01,-7.689800e-01,1.078900e+01
-1.331500e+00,2.424300e+00,-1.489800e-01,-7.689800e-01,1.041200e+01
-1.377000e+00,3.319100e+00,-1.486100e-01,-7.689800e-01,1.023000e+01
-1.333600e+00,3.378300e+00,-1.485800e-01,-7.689800e-01,1.108700e+01
-1.346500e+00,3.410800e+00,-1.485700e-01,-7.689800e-01,1.171400e+01
-1.359300e+00,3.443200e+00,-1.485600e-01,-7.689800e-01,1.181400e+01
-1.401300e+00,3.463700e+00,-1.485500e-01,-7.689800e-01,1.119600e+01
-2.859300e+00,3.562300e+00,-1.485100e-01,-7.689800e-01,1.049700e+01
-2.953200e+00,3.537600e+00,-1.485200e-01,-7.689800e-01,1.083000e+01
-3.193300e+00,3.369700e+00,-1.485900e-01,-7.689800e-01,1.052400e+01
-4.010700e-01,1.336300e+00,-1.494400e-01,-7.369400e-01,1.056100e+01
-4.340900e-01,1.386200e+00,-1.494200e-01,-7.369400e-01,1.123900e+01
-4.681900e-01,1.426500e+00,-1.494000e-01,-7.369400e-01,1.091600e+01
-4.911100e-01,1.468200e+00,-1.493900e-01,-7.369400e-01,9.568800e+00
-9.020000e-01,1.754800e+00,-1.492600e-01,-7.369400e-01,1.051200e+01
-9.020000e-01,1.789600e+00,-1.492500e-01,-7.369400e-01,1.106300e+01
-1.062400e+00,1.757200e+00,-1.492600e-01,-7.369400e-01,1.086300e+01
-1.162300e+00,1.715500e+00,-1.492800e-01,-7.369400e-01,1.090500e+01
-1.231600e+00,1.659200e+00,-1.493100e-01,-7.369400e-01,1.027500e+01
1.240000e+00,3.301200e+00,-1.486200e-01,-7.369400e-01,1.011000e+01
-1.641900e+00,3.123800e+00,-1.486900e-01,-7.369400e-01,1.066400e+01
-1.573700e+00,3.212800e+00,-1.486500e-01,-7.369400e-01,1.100500e+01
-1.475500e+00,3.316600e+00,-1.486100e-01,-7.369400e-01,1.092700e+01
-1.375100e+00,3.397900e+00,-1.485800e-01,-7.369400e-01,1.160900e+01
-1.388200e+00,3.431600e+00,-1.485600e-01,-7.369400e-01,1.168100e+01
-1.430500e+00,3.448500e+00,-1.485600e-01,-7.369400e-01,1.092600e+01
-3.228200e+00,2.376000e+00,-1.490000e-01,-7.369400e-01,1.059400e+01
-1.787600e+00,3.608600e+00,-1.484900e-01,-7.369400e-01,1.067400e+01
-3.896100e-01,1.343800e+00,-1.494400e-01,-7.049000e-01,1.123200e+01
-4.223500e-01,1.385600e+00,-1.494200e-01,-7.049000e-01,1.194600e+01
-4.561900e-01,1.413900e+00,-1.494100e-01,-7.049000e-01,1.178100e+01
-4.911100e-01,1.421700e+00,-1.494000e-01,-7.049000e-01,1.070800e+01
-1.223400e+00,1.618900e+00,-1.493200e-01,-7.049000e-01,1.063200e+01
-1.195000e+00,1.678400e+00,-1.493000e-01,-7.049000e-01,1.105500e+01
-1.214900e+00,1.701500e+00,-1.492900e-01,-7.049000e-01,1.064600e+01
-1.641900e+00,3.125600e+00,-1.486900e-01,-7.049000e-01,1.061700e+01
-1.714200e+00,3.131200e+00,-1.486900e-01,-7.049000e-01,1.110200e+01
-1.317800e+00,3.420300e+00,-1.485700e-01,-7.049000e-01,1.149700e+01
-1.417100e+00,3.418700e+00,-1.485700e-01,-7.049000e-01,1.159900e+01
-2.886600e+00,2.776000e+00,-1.488400e-01,-7.049000e-01,1.036600e+01
-3.070000e+00,2.548500e+00,-1.489300e-01,-7.049000e-01,1.086700e+01
-2.011100e+00,3.493600e+00,-1.485400e-01,-7.049000e-01,1.093600e+01
-2.028300e+00,3.492300e+00,-1.485400e-01,-7.049000e-01,1.018800e+01
-3.896100e-01,1.341700e+00,-1.494400e-01,-6.728600e-01,1.092600e+01
-4.106200e-01,1.388900e+00,-1.494200e-01,-6.728600e-01,1.172500e+01
-4.321800e-01,1.420200e+00,-1.494100e-01,-6.728600e-01,1.162000e+01
-4.542800e-01,1.430200e+00,-1.494000e-01,-6.728600e-01,1.068600e+01
-1.320000e+00,1.569500e+00,-1.493400e-01,-6.728600e-01,1.011500e+01
-1.506100e+00,1.434900e+00,-1.494000e-01,-6.728600e-01,1.038200e+01
-1.530600e+00,3.216400e+00,-1.486500e-01,-6.728600e-01,1.055300e+01
-1.629900e+00,3.202700e+00,-1.486600e-01,-6.728600e-01,1.125200e+01
-1.333600e+00,3.371200e+00,-1.485900e-01,-6.728600e-01,1.105900e+01
-1.260500e+00,3.443200e+00,-1.485600e-01,-6.728600e-01,1.172600e+01
-1.359300e+00,3.441000e+00,-1.485600e-01,-6.728600e-01,1.179800e+01
-1.372100e+00,3.472600e+00,-1.485500e-01,-6.728600e-01,1.078100e+01
-3.323200e+00,2.245000e+00,-1.490600e-01,-6.728600e-01,1.034900e+01
-5.456800e-02,7.390800e-01,-1.496900e-01,-6.408200e-01,9.298600e+00
-9.221900e-02,7.518000e-01,-1.496900e-01,-6.408200e-01,9.714100e+00
-4.458200e-01,1.322900e+00,-1.494500e-01,-6.408200e-01,1.004800e+01
-1.448800e+00,1.411700e+00,-1.494100e-01,-6.408200e-01,1.096900e+01
-1.489700e+00,1.430100e+00,-1.494000e-01,-6.408200e-01,1.143700e+01
-1.581100e+00,1.369600e+00,-1.494300e-01,-6.408200e-01,1.070000e+01
-1.545600e+00,3.242500e+00,-1.486400e-01,-6.408200e-01,1.063000e+01
-1.503900e+00,3.302500e+00,-1.486200e-01,-6.408200e-01,1.083500e+01
-1.403800e+00,3.387000e+00,-1.485800e-01,-6.408200e-01,1.104900e+01
-1.446000e+00,3.401700e+00,-1.485800e-01,-6.408200e-01,1.057100e+01
-8.157900e-02,5.638600e-01,-1.497600e-01,-6.087800e-01,9.576400e+00
-7.202900e-02,5.630600e-01,-1.497600e-01,-6.087800e-01,9.549800e+00
-1.414400e+00,5.249900e-01,-1.497800e-01,-6.087800e-01,9.970800e+00
-1.470600e+00,6.127400e-01,-1.497400e-01,-6.087800e-01,1.016500e+01
-1.541500e+00,7.086800e-01,-1.497000e-01,-6.087800e-01,1.003100e+01
-1.131700e+00,1.804600e+00,-1.492400e-01,-6.087800e-01,1.014000e+01
-1.517500e+00,3.256300e+00,-1.486400e-01,-6.087800e-01,1.080000e+01
-1.560600e+00,3.273800e+00,-1.486300e-01,-6.087800e-01,1.111800e+01
-1.575600e+00,3.308300e+00,-1.486100e-01,-6.087800e-01,1.097600e+01
-1.899000e+00,3.540300e+00,-1.485200e-01,-6.087800e-01,1.013700e+01
-1.915300e+00,3.468900e+00,-1.485500e-01,-6.087800e-01,1.011700e+01
-1.273900e+00,6.973900e+00,-1.470800e-01,-6.087800e-01,1.042700e+01
-1.447100e+00,6.968600e+00,-1.470800e-01,-6.087800e-01,1.133000e+01
-1.510200e+00,6.987400e+00,-1.470700e-01,-6.087800e-01,1.153800e+01
-1.573700e+00,7.016300e+00,-1.470600e-01,-6.087800e-01,1.142900e+01
-1.637800e+00,7.040100e+00,-1.470500e-01,-6.087800e-01,1.103100e+01
-1.645800e+00,7.074200e+00,-1.470400e-01,-6.087800e-01,1.028300e+01
-7.530300e-02,6.231600e-01,-1.497400e-01,-5.767400e-01,9.733500e+00
-1.178700e-01,6.067400e-01,-1.497500e-01,-5.767400e-01,9.479500e+00
-1.457200e+00,7.430300e-01,-1.496900e-01,-5.767400e-01,1.035400e+01
-1.244100e+00,1.655200e+00,-1.493100e-01,-5.767400e-01,1.065400e+01
-1.281500e+00,1.677300e+00,-1.493000e-01,-5.767400e-01,1.080300e+01
-1.419300e+00,3.260900e+00,-1.486300e-01,-5.767400e-01,1.014800e+01
-1.517500e+00,3.257300e+00,-1.486400e-01,-5.767400e-01,1.056500e+01
-1.589000e+00,3.250600e+00,-1.486400e-01,-5.767400e-01,1.036300e+01
-3.815900e+00,1.977900e+00,-1.491700e-01,-5.767400e-01,1.008600e+01
-3.776900e+00,2.134900e+00,-1.491100e-01,-5.767400e-01,1.046600e+01
-1.495400e+00,6.921900e+00,-1.471000e-01,-5.767400e-01,1.148000e+01
-1.502800e+00,6.960600e+00,-1.470800e-01,-5.767400e-01,1.250700e+01
-1.566100e+00,6.982900e+00,-1.470700e-01,-5.767400e-01,1.276900e+01
-1.573700e+00,7.013100e+00,-1.470600e-01,-5.767400e-01,1.270800e+01
-1.581400e+00,7.044900e+00,-1.470500e-01,-5.767400e-01,1.234600e+01
-1.702500e+00,7.050800e+00,-1.470500e-01,-5.767400e-01,1.143400e+01
2.455500e-02,3.358600e-01,-1.498600e-01,-5.447000e-01,9.642700e+00
1.691600e-02,8.298400e-01,-1.496500e-01,-5.447000e-01,9.879800e+00
-3.884700e+00,1.946600e+00,-1.491800e-01,-5.447000e-01,1.003200e+01
-3.811600e+00,2.163100e+00,-1.490900e-01,-5.447000e-01,1.022000e+01
-1.606200e+00,6.904000e+00,-1.471100e-01,-5.447000e-01,1.075700e+01
-1.558500e+00,6.951700e+00,-1.470900e-01,-5.447000e-01,1.170400e+01
-1.566100e+00,6.985800e+00,-1.470700e-01,-5.447000e-01,1.194500e+01
-1.573700e+00,7.012700e+00,-1.470600e-01,-5.447000e-01,1.193800e+01
-1.637800e+00,7.020400e+00,-1.470600e-01,-5.447000e-01,1.163900e+01
-1.816000e+00,7.003400e+00,-1.470700e-01,-5.447000e-01,1.069100e+01
-3.133300e+00,2.563400e+00,-1.489300e-01,-5.126600e-01,1.024700e+01
6.924600e-01,9.805200e+00,-1.458900e-01,-5.126600e-01,1.114200e+01
6.177100e-01,9.860500e+00,-1.458700e-01,-5.126600e-01,1.120900e+01
4.649200e-01,9.879000e+00,-1.458600e-01,-5.126600e-01,1.038900e+01
0,0,-1.500000e-01,-4.806200e-01,9.312600e+00
-1.427500e+00,6.999600e-01,-1.497100e-01,-4.806200e-01,9.693200e+00
6.900100e-01,9.785600e+00,-1.459000e-01,-4.806200e-01,1.057100e+01
6.924600e-01,9.812700e+00,-1.458900e-01,-4.806200e-01,1.165000e+01
6.177100e-01,9.860800e+00,-1.458700e-01,-4.806200e-01,1.168700e+01
4.649200e-01,9.898300e+00,-1.458500e-01,-4.806200e-01,1.074400e+01
6.155200e-01,9.828600e+00,-1.458800e-01,-4.485700e-01,1.042400e+01
6.177100e-01,9.863200e+00,-1.458700e-01,-4.485700e-01,1.046300e+01
4.561900e-01,3.781300e-01,-1.498400e-01,-1.922500e-01,9.952000e+00
4.769200e-01,4.335000e-01,-1.498200e-01,-1.922500e-01,1.026700e+01
5.042100e-01,5.178200e-01,-1.497800e-01,-1.922500e-01,9.693600e+00
6.460800e-01,9.088600e-01,-1.496200e-01,-1.922500e-01,1.013600e+01
5.852400e-01,9.521800e-01,-1.496000e-01,-1.922500e-01,9.985100e+00
0,0,-1.500000e-01,-1.602100e-01,9.549000e+00
3.590600e-01,8.658000e-01,-1.496400e-01,-1.602100e-01,1.001700e+01
3.956200e-01,8.479300e-01,-1.496400e-01,-1.602100e-01,1.056200e+01
4.802000e-01,7.527400e-01,-1.496800e-01,-1.602100e-01,1.033300e+01
5.042100e-01,8.107500e-01,-1.496600e-01,-1.602100e-01,1.030500e+01
0,0,-1.500000e-01,-1.281600e-01,9.473100e+00
4.894700e-01,2.894300e-01,-1.498800e-01,-1.281600e-01,9.537600e+00
4.354500e-01,7.761500e-01,-1.496700e-01,-1.281600e-01,1.021700e+01
4.826500e-01,7.102000e-01,-1.497000e-01,-1.281600e-01,1.084000e+01
5.647800e-01,5.293500e-01,-1.497800e-01,-1.281600e-01,1.073100e+01
5.666900e-01,5.743200e-01,-1.497600e-01,-1.281600e-01,1.046900e+01
5.063900e-01,7.753100e-01,-1.496800e-01,-1.281600e-01,1.085100e+01
5.222100e-01,7.963200e-01,-1.496700e-01,-1.281600e-01,1.079000e+01
0,0,-1.500000e-01,-9.612300e-02,9.423100e+00
4.812900e-01,6.862600e-01,-1.497100e-01,-9.612300e-02,1.142100e+01
5.063900e-01,6.638800e-01,-1.497200e-01,-9.612300e-02,1.204300e+01
5.320300e-01,6.448000e-01,-1.497300e-01,-9.612300e-02,1.161400e+01
5.074800e-01,7.119000e-01,-1.497000e-01,-9.612300e-02,1.077700e+01
4.976600e-01,7.937200e-01,-1.496700e-01,-9.612300e-02,1.081100e+01
5.222100e-01,7.955100e-01,-1.496700e-01,-9.612300e-02,1.072100e+01
-8.498900e-01,8.500500e-01,-1.496400e-01,-9.612300e-02,1.062100e+01
-8.938200e-01,8.218200e-01,-1.496600e-01,-9.612300e-02,1.095000e+01
-9.186500e-01,8.251600e-01,-1.496500e-01,-9.612300e-02,1.026600e+01
0,0,-1.500000e-01,-6.408200e-02,9.655900e+00
-3.328600e-02,5.235000e-03,-1.500000e-01,-6.408200e-02,9.470100e+00
4.774700e-01,6.388100e-01,-1.497300e-01,-6.408200e-02,9.746800e+00
5.391300e-01,7.105000e-01,-1.497000e-01,-6.408200e-02,1.000200e+01
5.083000e-01,6.782400e-01,-1.497200e-01,-6.408200e-02,1.147600e+01
4.889300e-01,6.602100e-01,-1.497200e-01,-6.408200e-02,1.304400e+01
5.063900e-01,6.868500e-01,-1.497100e-01,-6.408200e-02,1.362000e+01
5.402200e-01,7.250900e-01,-1.497000e-01,-6.408200e-02,1.318600e+01
5.666900e-01,7.890900e-01,-1.496700e-01,-6.408200e-02,1.152100e+01
4.952000e-01,8.891800e-01,-1.496300e-01,-6.408200e-02,1.025900e+01
-8.070600e-01,1.977600e-01,-1.499200e-01,-6.408200e-02,1.087600e+01
-8.689900e-01,7.877800e-01,-1.496700e-01,-6.408200e-02,1.159400e+01
-9.134600e-01,8.594300e-01,-1.496400e-01,-6.408200e-02,1.192100e+01
-9.489300e-01,7.937000e-01,-1.496700e-01,-6.408200e-02,1.151000e+01
-9.642100e-01,6.241000e-01,-1.497400e-01,-6.408200e-02,1.011000e+01
0,0,-1.500000e-01,-3.204100e-02,1.575200e+01
-4.092600e-02,1.960800e-02,-1.499900e-01,-3.204100e-02,1.516100e+01
-7.312100e-02,6.515100e-02,-1.499700e-01,-3.204100e-02,1.429300e+01
-1.091400e-02,1.323200e-01,-1.499400e-01,-3.204100e-02,1.347800e+01
-3.274100e-03,1.369800e-01,-1.499400e-01,-3.204100e-02,1.263500e+01
9.549300e-03,1.768900e-01,-1.499300e-01,-3.204100e-02,1.204000e+01
5.593200e-01,6.453900e-01,-1.497300e-01,-3.204100e-02,1.302600e+01
5.604100e-01,7.131700e-01,-1.497000e-01,-3.204100e-02,1.475900e+01
5.746000e-01,7.336500e-01,-1.496900e-01,-3.204100e-02,1.543400e+01
6.188000e-01,7.399600e-01,-1.496900e-01,-3.204100e-02,1.494500e+01
4.193500e-01,6.008300e-01,-1.497500e-01,-3.204100e-02,1.375500e+01
5.156600e-01,7.824800e-01,-1.496700e-01,-3.204100e-02,1.420600e+01
5.751400e-01,8.348700e-01,-1.496500e-01,-3.204100e-02,1.315000e+01
5.849700e-01,8.725100e-01,-1.496300e-01,-3.204100e-02,1.137600e+01
5.492200e-01,8.750800e-01,-1.496300e-01,-3.204100e-02,1.129100e+01
-8.070600e-01,7.334300e-01,-1.496900e-01,-3.204100e-02,1.139600e+01
-9.358400e-01,7.446000e-01,-1.496900e-01,-3.204100e-02,1.272700e+01
-9.331100e-01,7.358400e-01,-1.496900e-01,-3.204100e-02,1.333800e+01
-9.489300e-01,7.366300e-01,-1.496900e-01,-3.204100e-02,1.257300e+01
-1.078300e+00,7.223700e-01,-1.497000e-01,-3.204100e-02,1.056800e+01
-1.032100e+00,8.131600e-01,-1.496600e-01,-3.204100e-02,1.065500e+01
