0,0,-1.500000e-01,0,1.678200e+01
-4.092600e-02,2.127000e-02,-1.500000e-01,0,1.619300e+01
-7.312100e-02,6.557500e-02,-1.499900e-01,0,1.533300e+01
-1.227800e-02,1.339700e-01,-1.499700e-01,0,1.452800e+01
-3.274100e-03,1.397300e-01,-1.499700e-01,0,1.367200e+01
9.549300e-03,1.780500e-01,-1.499600e-01,0,1.305000e+01
5.525000e-01,6.573000e-01,-1.498600e-01,0,1.419600e+01
5.533200e-01,7.193000e-01,-1.498500e-01,0,1.586000e+01
5.598600e-01,7.434300e-01,-1.498400e-01,0,1.654700e+01
5.729600e-01,7.528300e-01,-1.498400e-01,0,1.634500e+01
5.934200e-01,7.511100e-01,-1.498400e-01,0,1.515800e+01
5.729600e-01,8.240800e-01,-1.498300e-01,0,1.263000e+01
-9.429300e-01,3.526300e-01,-1.499300e-01,0,1.297200e+01
-9.691200e-01,6.395700e-01,-1.498700e-01,0,1.263500e+01
-1.005700e+00,7.942500e-01,-1.498300e-01,0,1.240800e+01
-1.032100e+00,7.824800e-01,-1.498400e-01,0,1.180800e+01
-1.058600e+00,7.993900e-01,-1.498300e-01,0,1.028800e+01
0,0,-1.500000e-01,3.204100e-02,1.577900e+01
-4.092600e-02,2.308200e-02,-1.500000e-01,3.204100e-02,1.518500e+01
-7.312100e-02,6.668000e-02,-1.499900e-01,3.204100e-02,1.432000e+01
-1.227800e-02,1.351000e-01,-1.499700e-01,3.204100e-02,1.351400e+01
-3.274100e-03,1.426600e-01,-1.499700e-01,3.204100e-02,1.269900e+01
9.549300e-03,1.809300e-01,-1.499600e-01,3.204100e-02,1.205200e+01
5.525000e-01,6.573800e-01,-1.498600e-01,3.204100e-02,1.309100e+01
5.533200e-01,7.198300e-01,-1.498500e-01,3.204100e-02,1.471500e+01
5.672300e-01,7.421000e-01,-1.498400e-01,3.204100e-02,1.534800e+01
5.729600e-01,7.574700e-01,-1.498400e-01,3.204100e-02,1.508700e+01
5.855100e-01,7.568600e-01,-1.498400e-01,3.204100e-02,1.375300e+01
5.942400e-01,8.585300e-01,-1.498200e-01,3.204100e-02,1.085800e+01
-9.835800e-01,5.645200e-01,-1.498800e-01,3.204100e-02,1.124300e+01
-9.331100e-01,2.058800e-01,-1.499600e-01,3.204100e-02,1.205900e+01
-9.590300e-01,8.450200e-01,-1.498200e-01,3.204100e-02,1.147800e+01
-1.026400e+00,7.780300e-01,-1.498400e-01,3.204100e-02,1.155900e+01
-1.053400e+00,7.420800e-01,-1.498400e-01,3.204100e-02,1.087200e+01
-3.383200e-02,8.071100e-03,-1.500000e-01,6.408200e-02,9.338400e+00
2.897500e-01,3.048800e-01,-1.499400e-01,6.408200e-02,9.322300e+00
4.327200e-01,4.931100e-01,-1.499000e-01,6.408200e-02,1.107800e+01
4.714600e-01,6.427900e-01,-1.498700e-01,6.408200e-02,1.218200e+01
5.271200e-01,7.282300e-01,-1.498500e-01,6.408200e-02,1.255600e+01
5.776000e-01,7.856300e-01,-1.498400e-01,6.408200e-02,1.213000e+01
6.138900e-01,8.435900e-01,-1.498200e-01,6.408200e-02,1.065600e+01
6.482600e-01,8.208600e-01,-1.498300e-01,6.408200e-02,1.024400e+01
-7.470300e-01,7.526400e-01,-1.498400e-01,6.408200e-02,1.101000e+01
4.081700e-01,4.041700e-01,-1.499200e-01,9.612300e-02,9.530900e+00
4.329900e-01,4.807100e-01,-1.499000e-01,9.612300e-02,9.651300e+00
3.334100e-01,3.320900e-02,-1.499900e-01,9.612300e-02,1.065700e+01
3.683300e-01,4.143300e-01,-1.499100e-01,9.612300e-02,1.141200e+01
4.278100e-01,6.404100e-01,-1.498700e-01,9.612300e-02,1.163700e+01
4.826500e-01,7.627100e-01,-1.498400e-01,9.612300e-02,1.141300e+01
-5.696900e-01,7.251900e-01,-1.498500e-01,9.612300e-02,1.014600e+01
-5.451300e-01,1.014500e+00,-1.497900e-01,9.612300e-02,1.013500e+01
-3.049200e+00,3.169700e+00,-1.493400e-01,-9.932700e-01,1.015300e+01
-3.038300e+00,3.274300e+00,-1.493100e-01,-9.932700e-01,1.025700e+01
-3.083900e+00,3.179700e+00,-1.493300e-01,-9.612300e-01,1.035600e+01
-3.073300e+00,3.242900e+00,-1.493200e-01,-9.612300e-01,1.057100e+01
-3.049200e+00,3.220800e+00,-1.493300e-01,-9.291900e-01,1.008500e+01
-3.143100e+00,3.146400e+00,-1.493400e-01,-9.291900e-01,1.026900e+01
-1.008400e+00,8.800600e-01,-1.498200e-01,-8.971500e-01,9.920500e+00
-1.055900e+00,7.562700e-01,-1.498400e-01,-8.971500e-01,9.665400e+00
-1.789000e+00,2.196800e+00,-1.495400e-01,-8.971500e-01,1.056900e+01
-1.810600e+00,2.278200e+00,-1.495200e-01,-8.971500e-01,1.061000e+01
-2.460200e+00,3.582500e+00,-1.492500e-01,-8.971500e-01,1.033000e+01
-2.933600e+00,3.372300e+00,-1.492900e-01,-8.971500e-01,1.020600e+01
-8.479800e-01,1.133500e+00,-1.497600e-01,-8.651100e-01,9.774100e+00
-9.151000e-01,1.108600e+00,-1.497700e-01,-8.651100e-01,1.089900e+01
-9.844000e-01,1.081300e+00,-1.497700e-01,-8.651100e-01,1.133300e+01
-1.043600e+00,1.075800e+00,-1.497700e-01,-8.651100e-01,1.096500e+01
-1.767400e+00,2.029700e+00,-1.495700e-01,-8.651100e-01,1.024000e+01
-1.789000e+00,2.226100e+00,-1.495300e-01,-8.651100e-01,1.112500e+01
-1.810600e+00,2.290700e+00,-1.495200e-01,-8.651100e-01,1.122100e+01
-1.832100e+00,2.332700e+00,-1.495100e-01,-8.651100e-01,1.048800e+01
-2.668100e+00,3.526000e+00,-1.492600e-01,-8.651100e-01,1.035800e+01
-2.863700e+00,3.432400e+00,-1.492800e-01,-8.651100e-01,1.044000e+01
-8.594400e-01,1.101200e+00,-1.497700e-01,-8.330700e-01,1.047800e+01
-9.151000e-01,1.117700e+00,-1.497700e-01,-8.330700e-01,1.157100e+01
-9.603900e-01,1.134500e+00,-1.497600e-01,-8.330700e-01,1.184800e+01
-1.019100e+00,1.145900e+00,-1.497600e-01,-8.330700e-01,1.122500e+01
-2.766600e-01,2.634600e+00,-1.494500e-01,-8.330700e-01,1.024600e+01
-2.371000e-01,2.727000e+00,-1.494300e-01,-8.330700e-01,1.101600e+01
-1.964400e-01,2.775400e+00,-1.494200e-01,-8.330700e-01,1.089400e+01
-1.326000e-01,2.822000e+00,-1.494100e-01,-8.330700e-01,9.980900e+00
-1.766400e+00,2.272100e+00,-1.495200e-01,-8.330700e-01,1.008100e+01
-1.764700e+00,2.342400e+00,-1.495100e-01,-8.330700e-01,1.006600e+01
-2.702700e+00,3.514100e+00,-1.492600e-01,-8.330700e-01,1.041500e+01
-2.793900e+00,3.468200e+00,-1.492700e-01,-8.330700e-01,1.032600e+01
-2.488300e-01,1.248100e+00,-1.497400e-01,-8.010300e-01,1.087700e+01
-2.660200e-01,1.275200e+00,-1.497300e-01,-8.010300e-01,1.141200e+01
-2.837500e-01,1.299700e+00,-1.497300e-01,-8.010300e-01,1.112200e+01
-3.355900e-01,1.313000e+00,-1.497200e-01,-8.010300e-01,1.015300e+01
-8.916400e-01,1.134300e+00,-1.497600e-01,-8.010300e-01,1.109700e+01
-9.363800e-01,1.157600e+00,-1.497600e-01,-8.010300e-01,1.137200e+01
-9.699400e-01,1.180000e+00,-1.497500e-01,-8.010300e-01,1.060900e+01
-2.341000e-01,2.685100e+00,-1.494400e-01,-8.010300e-01,1.029100e+01
-2.371000e-01,2.736200e+00,-1.494300e-01,-8.010300e-01,1.109900e+01
-1.964400e-01,2.777500e+00,-1.494200e-01,-8.010300e-01,1.090100e+01
-1.105000e-01,2.825800e+00,-1.494100e-01,-8.010300e-01,9.908900e+00
-1.992800e+00,2.079500e+00,-1.495600e-01,-8.010300e-01,1.019000e+01
-2.016800e+00,2.099200e+00,-1.495600e-01,-8.010300e-01,1.041300e+01
-2.220900e-01,1.207000e+00,-1.497500e-01,-7.689800e-01,1.042500e+01
-2.280900e-01,1.256500e+00,-1.497400e-01,-7.689800e-01,1.203800e+01
-2.341000e-01,1.293600e+00,-1.497300e-01,-7.689800e-01,1.264200e+01
-2.401000e-01,1.325700e+00,-1.497200e-01,-7.689800e-01,1.237700e+01
-2.572900e-01,1.353200e+00,-1.497200e-01,-7.689800e-01,1.124000e+01
-9.033700e-01,1.123300e+00,-1.497600e-01,-7.689800e-01,1.060200e+01
-9.363800e-01,1.138300e+00,-1.497600e-01,-7.689800e-01,1.068700e+01
-9.737600e-01,2.379700e+00,-1.495000e-01,-7.689800e-01,1.026000e+01
-2.131400e+00,2.015200e+00,-1.495800e-01,-7.689800e-01,1.026600e+01
9.011800e-01,1.012000e+01,7.813500e+00,-7.689800e-01,9.757100e+00
-2.019000e-01,1.211300e+00,-1.497500e-01,-7.369400e-01,9.877000e+00
-2.177200e-01,1.268700e+00,-1.497300e-01,-7.369400e-01,1.165700e+01
-2.128100e-01,1.311800e+00,-1.497300e-01,-7.369400e-01,1.235400e+01
-2.182700e-01,1.346200e+00,-1.497200e-01,-7.369400e-01,1.218600e+01
-2.461000e-01,1.373900e+00,-1.497100e-01,-7.369400e-01,1.117200e+01
-3.323200e-01,1.402600e+00,-1.497100e-01,-7.369400e-01,9.991800e+00
-9.268300e-01,1.133100e+00,-1.497600e-01,-7.369400e-01,1.031400e+01
-9.603900e-01,1.148300e+00,-1.497600e-01,-7.369400e-01,1.029400e+01
-8.831800e-01,2.592700e+00,-1.494600e-01,-7.369400e-01,1.001800e+01
-1.762500e-01,1.314500e+00,-1.497200e-01,-7.049000e-01,1.010400e+01
-1.702500e-01,1.344700e+00,-1.497200e-01,-7.049000e-01,1.116500e+01
-1.964400e-01,1.370400e+00,-1.497100e-01,-7.049000e-01,1.122900e+01
-2.237300e-01,1.396200e+00,-1.497100e-01,-7.049000e-01,1.046100e+01
-3.781500e-01,1.304300e+00,-1.497300e-01,-7.049000e-01,9.721100e+00
-9.620300e-01,1.128800e+00,-1.497600e-01,-7.049000e-01,9.851000e+00
-1.596100e-01,1.333100e+00,-1.497200e-01,-6.728600e-01,1.046400e+01
-1.746200e-01,1.364900e+00,-1.497100e-01,-6.728600e-01,1.045200e+01
-2.466200e+00,3.836200e+00,-1.492000e-01,-5.447000e-01,1.033100e+01
-2.557000e+00,3.820500e+00,-1.492000e-01,-5.447000e-01,1.048600e+01
-2.549400e+00,3.503500e+00,-1.492700e-01,-5.126600e-01,1.076500e+01
-2.498900e+00,3.722200e+00,-1.492200e-01,-5.126600e-01,1.163200e+01
-2.482800e+00,3.796600e+00,-1.492000e-01,-5.126600e-01,1.146600e+01
-2.537700e+00,3.787500e+00,-1.492100e-01,-5.126600e-01,1.234800e+01
-2.557000e+00,3.831200e+00,-1.492000e-01,-5.126600e-01,1.252800e+01
-2.612700e+00,3.840200e+00,-1.492000e-01,-5.126600e-01,1.147600e+01
-2.514500e+00,3.596800e+00,-1.492500e-01,-4.806200e-01,1.157300e+01
-2.498900e+00,3.734600e+00,-1.492200e-01,-4.806200e-01,1.240800e+01
-2.482800e+00,3.772200e+00,-1.492100e-01,-4.806200e-01,1.204500e+01
-2.573400e+00,3.756900e+00,-1.492100e-01,-4.806200e-01,1.346700e+01
-2.593100e+00,3.807500e+00,-1.492000e-01,-4.806200e-01,1.359200e+01
-2.649000e+00,3.815300e+00,-1.492000e-01,-4.806200e-01,1.244300e+01
-2.778600e+00,3.741400e+00,-1.492200e-01,-4.806200e-01,1.034300e+01
-2.304900e+00,3.782100e+00,-1.492100e-01,-4.485700e-01,1.051400e+01
-2.428500e+00,3.794500e+00,-1.492100e-01,-4.485700e-01,1.094000e+01
-2.731100e+00,3.458200e+00,-1.492800e-01,-4.485700e-01,1.098200e+01
-2.609200e+00,3.727800e+00,-1.492200e-01,-4.485700e-01,1.274100e+01
-2.593100e+00,3.808100e+00,-1.492000e-01,-4.485700e-01,1.282300e+01
-2.649000e+00,3.815300e+00,-1.492000e-01,-4.485700e-01,1.160600e+01
-2.604500e+00,3.667400e+00,-1.492300e-01,-4.165300e-01,1.060700e+01
-2.553800e+00,3.736900e+00,-1.492200e-01,-4.165300e-01,1.165700e+01
-2.573400e+00,3.771600e+00,-1.492100e-01,-4.165300e-01,1.164700e+01
-2.629100e+00,3.783300e+00,-1.492100e-01,-4.165300e-01,1.077100e+01
0,0,-1.500000e-01,-9.612300e-02,9.398200e+00
3.743300e-01,6.284200e-01,-1.498700e-01,-9.612300e-02,1.018800e+01
3.718800e-01,6.194300e-01,-1.498700e-01,-9.612300e-02,1.055400e+01
-1.418800e-02,1.206600e-02,-1.500000e-01,-6.408200e-02,9.634200e+00
4.507300e-01,6.574900e-01,-1.498600e-01,-6.408200e-02,9.995900e+00
4.114400e-01,5.866300e-01,-1.498800e-01,-6.408200e-02,1.026500e+01
4.010700e-01,5.782300e-01,-1.498800e-01,-6.408200e-02,9.927800e+00
-8.689900e-01,1.552000e-01,-1.499700e-01,-6.408200e-02,1.024000e+01
0,0,-1.500000e-01,-3.204100e-02,1.576800e+01
-4.010700e-02,3.002900e-02,-1.499900e-01,-3.204100e-02,1.517200e+01
-7.312100e-02,6.483800e-02,-1.499900e-01,-3.204100e-02,1.431500e+01
-1.227800e-02,1.332800e-01,-1.499700e-01,-3.204100e-02,1.351400e+01
-4.911100e-03,1.356400e-01,-1.499700e-01,-3.204100e-02,1.266300e+01
7.639500e-03,1.700100e-01,-1.499600e-01,-3.204100e-02,1.202500e+01
5.525000e-01,6.555200e-01,-1.498600e-01,-3.204100e-02,1.327600e+01
5.533200e-01,7.190500e-01,-1.498500e-01,-3.204100e-02,1.494100e+01
5.598600e-01,7.415800e-01,-1.498400e-01,-3.204100e-02,1.563900e+01
5.729600e-01,7.488500e-01,-1.498400e-01,-3.204100e-02,1.545300e+01
5.934200e-01,7.439500e-01,-1.498400e-01,-3.204100e-02,1.431400e+01
5.811500e-01,7.974500e-01,-1.498300e-01,-3.204100e-02,1.198300e+01
-8.938200e-01,1.993800e-01,-1.499600e-01,-3.204100e-02,1.242000e+01
-9.489300e-01,5.746500e-01,-1.498800e-01,-3.204100e-02,1.187600e+01
-9.953100e-01,7.815400e-01,-1.498400e-01,-3.204100e-02,1.140900e+01
-1.010900e+00,7.822600e-01,-1.498400e-01,-3.204100e-02,1.084200e+01
