0,0,-1.500000e-01,0,1.679800e+01
-7.202900e-02,6.835900e-02,-1.476800e-01,0,1.533900e+01
-1.364200e-02,1.282800e-01,-1.456500e-01,0,1.442000e+01
-1.637000e-03,1.357200e-01,-1.453900e-01,0,1.363100e+01
1.527900e-02,1.751800e-01,-1.440500e-01,0,1.293600e+01
2.660200e-01,2.040500e-01,-1.430700e-01,0,1.368100e+01
5.746000e-01,7.021000e-01,-1.261700e-01,0,1.509300e+01
5.819600e-01,7.401700e-01,-1.248800e-01,0,1.567600e+01
5.958800e-01,7.686600e-01,-1.239100e-01,0,1.545000e+01
6.171600e-01,7.996000e-01,-1.228600e-01,0,1.436100e+01
-7.142900e-01,3.044800e-01,-1.396700e-01,0,1.307700e+01
-9.644800e-01,7.495700e-01,-1.245600e-01,0,1.345700e+01
-9.527500e-01,7.647000e-01,-1.240500e-01,0,1.397400e+01
-9.590300e-01,7.225000e-01,-1.254800e-01,0,1.311700e+01
-1.016000e+00,8.087900e-01,-1.225500e-01,0,1.203800e+01
-1.032100e+00,8.286500e-01,-1.218800e-01,0,1.191800e+01
-1.025900e+00,9.163500e-01,-1.189000e-01,0,1.060900e+01
0,0,-1.500000e-01,3.204100e-02,1.580600e+01
-7.202900e-02,6.845700e-02,-1.476800e-01,3.204100e-02,1.433000e+01
-1.364200e-02,1.282800e-01,-1.456500e-01,3.204100e-02,1.342700e+01
-3.274100e-03,1.336600e-01,-1.454600e-01,3.204100e-02,1.261900e+01
1.336900e-02,1.741100e-01,-1.440900e-01,3.204100e-02,1.194400e+01
4.297200e-01,3.959400e-01,-1.365600e-01,3.204100e-02,1.245300e+01
4.561900e-01,4.105800e-01,-1.360700e-01,3.204100e-02,1.270500e+01
4.832000e-01,4.531600e-01,-1.346200e-01,3.204100e-02,1.212300e+01
2.660200e-01,2.245300e-01,-1.423800e-01,3.204100e-02,1.285500e+01
5.746000e-01,7.023600e-01,-1.261600e-01,3.204100e-02,1.420200e+01
5.819600e-01,7.396300e-01,-1.249000e-01,3.204100e-02,1.476100e+01
5.958800e-01,7.675500e-01,-1.239500e-01,3.204100e-02,1.452700e+01
6.171600e-01,7.976100e-01,-1.229300e-01,3.204100e-02,1.343300e+01
-1.002700e+00,6.976000e-01,-1.263200e-01,3.204100e-02,1.267400e+01
-9.625700e-01,7.996000e-01,-1.228600e-01,3.204100e-02,1.316600e+01
-9.691200e-01,7.958300e-01,-1.229900e-01,3.204100e-02,1.252100e+01
-1.026400e+00,7.887300e-01,-1.232300e-01,3.204100e-02,1.121500e+01
-1.042800e+00,8.223800e-01,-1.220900e-01,3.204100e-02,1.083700e+01
0,0,-1.500000e-01,6.408200e-02,9.414800e+00
4.297200e-01,2.977800e-01,-1.398900e-01,6.408200e-02,1.072600e+01
4.561900e-01,3.965800e-01,-1.365400e-01,6.408200e-02,1.139800e+01
4.832000e-01,4.474400e-01,-1.348100e-01,6.408200e-02,1.114800e+01
5.238500e-01,5.083600e-01,-1.327500e-01,6.408200e-02,9.947800e+00
5.797800e-01,6.450400e-01,-1.281100e-01,6.408200e-02,1.003900e+01
4.681900e-01,6.831500e-01,-1.268200e-01,6.408200e-02,1.125900e+01
5.009300e-01,7.095300e-01,-1.259200e-01,6.408200e-02,1.231400e+01
5.194800e-01,7.296300e-01,-1.252400e-01,6.408200e-02,1.228100e+01
4.826500e-01,7.724900e-01,-1.237800e-01,6.408200e-02,1.103900e+01
-8.534400e-01,6.663400e-01,-1.273900e-01,6.408200e-02,1.073000e+01
-8.498900e-01,5.600900e-01,-1.309900e-01,6.408200e-02,1.139600e+01
-8.054200e-01,4.004600e-01,-1.364100e-01,6.408200e-02,1.080400e+01
0,0,-1.500000e-01,9.612300e-02,9.609300e+00
3.525100e-01,2.945100e-01,-1.400000e-01,9.612300e-02,9.793000e+00
3.928900e-01,2.968400e-01,-1.399300e-01,9.612300e-02,1.072700e+01
4.182600e-01,3.135500e-01,-1.393600e-01,9.612300e-02,1.092000e+01
4.441800e-01,2.940900e-01,-1.400200e-01,9.612300e-02,1.023900e+01
4.398200e-01,6.290000e-01,-1.286500e-01,9.612300e-02,1.098000e+01
4.935600e-01,6.907500e-01,-1.265600e-01,9.612300e-02,1.190100e+01
5.271200e-01,7.386300e-01,-1.249300e-01,9.612300e-02,1.184900e+01
-8.627100e-01,8.156800e-01,-1.223200e-01,9.612300e-02,1.049500e+01
-8.976400e-01,7.782800e-01,-1.235900e-01,9.612300e-02,1.133100e+01
-9.232800e-01,7.414700e-01,-1.248400e-01,9.612300e-02,1.131900e+01
-9.489300e-01,7.292200e-01,-1.252500e-01,9.612300e-02,1.028100e+01
0,0,-1.500000e-01,1.281600e-01,1.013300e+01
3.525100e-01,4.326800e-01,-1.353200e-01,1.281600e-01,9.759600e+00
3.765200e-01,4.282900e-01,-1.354600e-01,1.281600e-01,1.046300e+01
3.953400e-01,4.304600e-01,-1.353900e-01,1.281600e-01,1.044200e+01
5.533200e-01,7.186200e-01,-1.256100e-01,1.281600e-01,1.063900e+01
5.598600e-01,7.562300e-01,-1.243300e-01,1.281600e-01,1.146000e+01
5.806000e-01,7.824900e-01,-1.234400e-01,1.281600e-01,1.163700e+01
6.171600e-01,7.993500e-01,-1.228700e-01,1.281600e-01,1.097800e+01
-8.880900e-01,8.308500e-01,-1.218000e-01,1.281600e-01,1.019000e+01
-9.232800e-01,7.897400e-01,-1.232000e-01,1.281600e-01,1.005200e+01
0,0,-1.500000e-01,1.602100e-01,9.808400e+00
-3.355900e-02,8.731700e-03,-1.497000e-01,1.602100e-01,9.436600e+00
3.819700e-01,4.750100e-01,-1.338800e-01,1.602100e-01,9.753000e+00
3.953400e-01,4.751400e-01,-1.338700e-01,1.602100e-01,1.026600e+01
4.021600e-01,5.112800e-01,-1.326500e-01,1.602100e-01,1.002000e+01
5.746000e-01,7.418000e-01,-1.248200e-01,1.602100e-01,1.125600e+01
5.958800e-01,7.489100e-01,-1.245800e-01,1.602100e-01,1.167100e+01
6.250700e-01,7.551500e-01,-1.243700e-01,1.602100e-01,1.134900e+01
-1.584600e+00,2.631500e+00,-6.069200e-02,-1.313700e+00,1.011500e+01
-9.823500e+00,8.867800e+00,1.509600e-01,-1.313700e+00,1.008400e+01
-3.928900e-01,3.117600e+00,-4.419600e-02,-1.217600e+00,1.019800e+01
-5.213900e-01,3.124200e+00,-4.397000e-02,-1.217600e+00,1.046200e+01
-4.420000e-01,3.105900e+00,-4.459200e-02,-1.185500e+00,1.077100e+01
-4.717400e-01,3.126900e+00,-4.387700e-02,-1.185500e+00,1.116300e+01
-5.522200e-01,3.097800e+00,-4.486700e-02,-1.185500e+00,1.036700e+01
-4.325900e+00,3.015700e+00,-4.765200e-02,-1.185500e+00,1.002500e+01
-3.536000e-01,2.482400e+00,-6.575100e-02,-1.153500e+00,1.005100e+01
-5.156600e-01,3.100200e+00,-4.478500e-02,-1.153500e+00,1.038300e+01
-4.717400e-01,3.138500e+00,-4.348600e-02,-1.153500e+00,1.074900e+01
-4.769200e-01,3.138100e+00,-4.349700e-02,-1.153500e+00,1.007100e+01
-4.215400e+00,3.052500e+00,-4.640400e-02,-1.153500e+00,1.022200e+01
-4.325900e+00,3.002100e+00,-4.811300e-02,-1.153500e+00,1.055900e+01
-2.905700e-01,2.454200e+00,-6.671000e-02,-1.121400e+00,1.062700e+01
-2.946700e-01,2.491200e+00,-6.545400e-02,-1.121400e+00,1.111600e+01
-2.987600e-01,2.522700e+00,-6.438300e-02,-1.121400e+00,1.053400e+01
-3.099400e-01,2.459300e+00,-6.653400e-02,-1.089400e+00,1.012800e+01
-3.143100e-01,2.493500e+00,-6.537400e-02,-1.089400e+00,1.054800e+01
-3.385900e-01,2.512100e+00,-6.474500e-02,-1.089400e+00,1.010500e+01
-3.385900e-01,2.521400e+00,-6.442800e-02,-1.057400e+00,1.002800e+01
-1.242500e+00,3.221600e+00,-4.066500e-02,-1.057400e+00,1.008700e+01
-1.323500e+00,3.171300e+00,-4.237100e-02,-1.025300e+00,9.845500e+00
-1.336900e+00,3.224400e+00,-4.056900e-02,-1.025300e+00,9.993800e+00
-2.712000e-01,2.458300e+00,-6.656900e-02,-9.932700e-01,1.039700e+01
-3.143100e-01,2.492100e+00,-6.542100e-02,-9.932700e-01,1.046400e+01
-7.366600e-01,5.185900e+00,2.600100e-02,-9.932700e-01,9.886000e+00
-4.325900e+00,3.000500e+00,-4.817000e-02,-9.932700e-01,9.817500e+00
3.836100e-01,4.448300e-01,-1.349000e-01,-9.612300e-01,9.471000e+00
4.147100e-01,4.525100e-01,-1.346400e-01,-9.612300e-01,9.824600e+00
4.526400e-01,4.380900e-01,-1.351300e-01,-9.612300e-01,9.655900e+00
-2.905700e-01,2.447300e+00,-6.694400e-02,-9.612300e-01,1.042500e+01
-3.339500e-01,2.487100e+00,-6.559200e-02,-9.612300e-01,1.050500e+01
-1.215500e+00,3.217500e+00,-4.080300e-02,-9.612300e-01,9.981200e+00
-1.282300e+00,3.215500e+00,-4.087200e-02,-9.612300e-01,1.030400e+01
3.437800e-01,4.531300e-01,-1.346200e-01,-9.291900e-01,9.292800e+00
3.680600e-01,4.683600e-01,-1.341000e-01,-9.291900e-01,1.036800e+01
3.983400e-01,4.972500e-01,-1.331200e-01,-9.291900e-01,1.072100e+01
4.354500e-01,5.082400e-01,-1.327500e-01,-9.291900e-01,9.787000e+00
-1.242500e+00,3.224100e+00,-4.057900e-02,-9.291900e-01,1.089300e+01
-1.282300e+00,3.244000e+00,-3.990500e-02,-9.291900e-01,1.105700e+01
-1.405400e+00,3.232600e+00,-4.029200e-02,-9.291900e-01,1.041000e+01
3.536000e-01,4.139400e-01,-1.359500e-01,-8.971500e-01,1.009900e+01
3.732400e-01,4.571200e-01,-1.344900e-01,-8.971500e-01,1.143900e+01
3.983400e-01,4.872500e-01,-1.334600e-01,-8.971500e-01,1.175600e+01
4.239900e-01,5.124700e-01,-1.326100e-01,-8.971500e-01,1.116600e+01
4.501800e-01,5.427200e-01,-1.315800e-01,-8.971500e-01,9.604400e+00
-1.215500e+00,3.236500e+00,-4.015800e-02,-8.971500e-01,1.037100e+01
-1.255100e+00,3.258100e+00,-3.942500e-02,-8.971500e-01,1.039300e+01
3.486900e-01,4.264900e-01,-1.355300e-01,-8.651100e-01,1.040500e+01
3.784300e-01,4.598200e-01,-1.343900e-01,-8.651100e-01,1.182300e+01
4.038000e-01,4.881200e-01,-1.334300e-01,-8.651100e-01,1.211100e+01
4.297200e-01,5.097900e-01,-1.327000e-01,-8.651100e-01,1.143600e+01
4.501800e-01,5.146000e-01,-1.325400e-01,-8.651100e-01,1.001900e+01
-1.309600e+00,3.232800e+00,-4.028600e-02,-8.651100e-01,1.012000e+01
3.486900e-01,4.376600e-01,-1.351500e-01,-8.330700e-01,9.918800e+00
3.784300e-01,4.718000e-01,-1.339900e-01,-8.330700e-01,1.117100e+01
4.092600e-01,5.016300e-01,-1.329800e-01,-8.330700e-01,1.126700e+01
4.469100e-01,5.315900e-01,-1.319600e-01,-8.330700e-01,1.000900e+01
3.784300e-01,3.610600e-01,-1.377500e-01,-8.010300e-01,9.715800e+00
3.983400e-01,4.299000e-01,-1.354100e-01,-8.010300e-01,9.594900e+00
4.239900e-01,5.293900e-01,-1.320300e-01,-8.010300e-01,9.666300e+00
-1.126300e+00,3.153800e+00,-4.296500e-02,-8.010300e-01,1.034600e+01
-1.164500e+00,3.179400e+00,-4.209700e-02,-8.010300e-01,1.163500e+01
-1.203200e+00,3.200200e+00,-4.139000e-02,-8.010300e-01,1.183200e+01
-1.242500e+00,3.219200e+00,-4.074700e-02,-8.010300e-01,1.108300e+01
3.536000e-01,3.720000e-01,-1.373700e-01,-7.689800e-01,1.018000e+01
3.784300e-01,4.395400e-01,-1.350800e-01,-7.689800e-01,1.143600e+01
4.092600e-01,4.718000e-01,-1.339900e-01,-7.689800e-01,1.152900e+01
4.411800e-01,5.067600e-01,-1.328000e-01,-7.689800e-01,1.062800e+01
4.862000e-01,5.166300e-01,-1.324700e-01,-7.689800e-01,9.538000e+00
-1.152500e+00,3.145000e+00,-4.326300e-02,-7.689800e-01,1.202700e+01
-1.190900e+00,3.169100e+00,-4.244600e-02,-7.689800e-01,1.310300e+01
-1.230000e+00,3.192100e+00,-4.166600e-02,-7.689800e-01,1.314000e+01
-1.269500e+00,3.215200e+00,-4.088300e-02,-7.689800e-01,1.219900e+01
-1.309600e+00,3.228600e+00,-4.042600e-02,-7.689800e-01,1.032000e+01
3.486900e-01,3.893200e-01,-1.367900e-01,-7.369400e-01,1.094100e+01
3.784300e-01,4.339300e-01,-1.352700e-01,-7.369400e-01,1.212600e+01
4.038000e-01,4.586200e-01,-1.344400e-01,-7.369400e-01,1.230600e+01
4.297200e-01,4.738700e-01,-1.339200e-01,-7.369400e-01,1.158400e+01
4.681900e-01,4.791000e-01,-1.337400e-01,-7.369400e-01,1.029000e+01
-1.152500e+00,3.142600e+00,-4.334700e-02,-7.369400e-01,1.194500e+01
-1.217400e+00,3.156800e+00,-4.286400e-02,-7.369400e-01,1.288800e+01
-1.256700e+00,3.179400e+00,-4.209700e-02,-7.369400e-01,1.282800e+01
-1.296500e+00,3.202100e+00,-4.132500e-02,-7.369400e-01,1.179200e+01
-1.336900e+00,3.222400e+00,-4.063700e-02,-7.369400e-01,1.004100e+01
3.437800e-01,3.711900e-01,-1.374000e-01,-7.049000e-01,1.078500e+01
3.732400e-01,4.230800e-01,-1.356400e-01,-7.049000e-01,1.204600e+01
3.983400e-01,4.506600e-01,-1.347100e-01,-7.049000e-01,1.231800e+01
4.239900e-01,4.599100e-01,-1.343900e-01,-7.049000e-01,1.156000e+01
-1.178700e+00,3.133700e+00,-4.364800e-02,-7.049000e-01,1.000500e+01
-1.243900e+00,3.134400e+00,-4.362500e-02,-7.049000e-01,1.079000e+01
-1.310200e+00,3.124400e+00,-4.396300e-02,-7.049000e-01,1.055800e+01
-1.280200e+00,3.321600e+00,-3.727100e-02,-7.049000e-01,1.025600e+01
3.437800e-01,3.689200e-01,-1.374800e-01,-6.728600e-01,1.083900e+01
3.680600e-01,4.206100e-01,-1.357300e-01,-6.728600e-01,1.212200e+01
3.928900e-01,4.472700e-01,-1.348200e-01,-6.728600e-01,1.232300e+01
4.125300e-01,4.578800e-01,-1.344600e-01,-6.728600e-01,1.124800e+01
-1.240000e+00,3.292800e+00,-3.824900e-02,-6.728600e-01,1.010400e+01
-1.335800e+00,3.300100e+00,-3.799900e-02,-6.728600e-01,1.099500e+01
-1.377000e+00,3.321800e+00,-3.726500e-02,-6.728600e-01,1.080700e+01
3.388700e-01,3.708400e-01,-1.374100e-01,-6.408200e-01,1.073900e+01
3.628700e-01,4.235500e-01,-1.356300e-01,-6.408200e-01,1.215800e+01
3.874300e-01,4.450200e-01,-1.349000e-01,-6.408200e-01,1.241900e+01
4.125300e-01,4.446600e-01,-1.349100e-01,-6.408200e-01,1.153100e+01
4.141700e-01,4.840100e-01,-1.335700e-01,-6.408200e-01,9.480000e+00
-1.447100e+00,3.249200e+00,-3.972700e-02,-6.408200e-01,1.008300e+01
-1.489400e+00,3.272000e+00,-3.895400e-02,-6.408200e-01,9.929300e+00
3.290400e-01,2.868600e-01,-1.402600e-01,-6.087800e-01,1.024500e+01
3.576900e-01,3.735600e-01,-1.373200e-01,-6.087800e-01,1.168800e+01
3.819700e-01,3.990800e-01,-1.364600e-01,-6.087800e-01,1.205900e+01
4.068000e-01,4.023700e-01,-1.363400e-01,-6.087800e-01,1.157900e+01
4.381800e-01,4.612600e-01,-1.343500e-01,-6.087800e-01,1.029300e+01
3.339500e-01,3.791100e-01,-1.371300e-01,-4.485700e-01,1.037200e+01
3.525100e-01,4.101800e-01,-1.360800e-01,-4.485700e-01,1.173100e+01
3.710600e-01,4.333200e-01,-1.352900e-01,-4.485700e-01,1.189600e+01
3.838800e-01,4.729000e-01,-1.339500e-01,-4.485700e-01,1.092100e+01
3.525100e-01,4.062600e-01,-1.362100e-01,-3.844900e-01,9.300000e+00
3.634200e-01,4.249800e-01,-1.355800e-01,-3.844900e-01,9.749000e+00
3.628700e-01,4.111800e-01,-1.360500e-01,-3.844900e-01,1.094000e+01
3.819700e-01,4.045300e-01,-1.362700e-01,-3.844900e-01,1.134900e+01
4.125300e-01,3.702100e-01,-1.374400e-01,-3.844900e-01,1.079900e+01
4.621900e-01,4.158500e-01,-1.358900e-01,-3.844900e-01,1.060700e+01
4.894700e-01,4.355500e-01,-1.352200e-01,-3.844900e-01,1.108100e+01
5.238500e-01,4.096700e-01,-1.361000e-01,-3.844900e-01,1.069900e+01
3.478700e-01,2.902200e-01,-1.401500e-01,-3.524500e-01,9.649700e+00
3.317700e-01,4.305500e-01,-1.353900e-01,-3.524500e-01,1.009900e+01
3.383200e-01,4.192200e-01,-1.357700e-01,-3.524500e-01,9.977700e+00
5.042100e-01,3.688600e-01,-1.374800e-01,-3.524500e-01,1.002700e+01
4.681900e-01,4.420400e-01,-1.350000e-01,-3.524500e-01,1.109300e+01
4.832000e-01,4.527300e-01,-1.346400e-01,-3.524500e-01,1.123900e+01
5.107500e-01,4.701500e-01,-1.340400e-01,-3.524500e-01,1.063600e+01
4.365400e-01,3.655700e-01,-1.375900e-01,-1.602100e-01,1.016200e+01
4.526400e-01,4.337000e-01,-1.352800e-01,-1.602100e-01,1.148200e+01
4.802000e-01,4.753500e-01,-1.338700e-01,-1.602100e-01,1.172900e+01
5.083000e-01,5.227800e-01,-1.322600e-01,-1.602100e-01,1.103000e+01
-9.262900e-01,7.675900e-01,-1.239500e-01,-1.602100e-01,1.041900e+01
-9.625700e-01,7.488700e-01,-1.245800e-01,-1.602100e-01,1.027000e+01
3.680600e-01,4.869500e-01,-1.334700e-01,-1.281600e-01,9.392200e+00
4.420000e-01,3.606400e-01,-1.377600e-01,-1.281600e-01,1.059500e+01
4.469100e-01,3.629100e-01,-1.376800e-01,-1.281600e-01,1.181500e+01
4.681900e-01,3.746600e-01,-1.372800e-01,-1.281600e-01,1.193900e+01
4.957500e-01,4.481200e-01,-1.347900e-01,-1.281600e-01,1.109900e+01
6.035200e-01,6.999200e-01,-1.262500e-01,-1.281600e-01,1.060400e+01
-1.020400e+00,6.059000e-01,-1.294400e-01,-1.281600e-01,9.853100e+00
-9.740300e-01,7.261600e-01,-1.253600e-01,-1.281600e-01,1.010000e+01
-9.724000e-01,7.832000e-01,-1.234200e-01,-1.281600e-01,9.808600e+00
0,0,-1.500000e-01,-9.612300e-02,9.747200e+00
4.256300e-01,3.289400e-01,-1.388400e-01,-9.612300e-02,1.081500e+01
4.354500e-01,3.026500e-01,-1.397300e-01,-9.612300e-02,1.199900e+01
4.561900e-01,3.099400e-01,-1.394800e-01,-9.612300e-02,1.215600e+01
4.832000e-01,3.910300e-01,-1.367300e-01,-9.612300e-02,1.146500e+01
5.042100e-01,4.908600e-01,-1.333400e-01,-9.612300e-02,1.002600e+01
-8.250600e-01,3.758300e-01,-1.372400e-01,-9.612300e-02,9.819300e+00
0,0,-1.500000e-01,-6.408200e-02,1.041200e+01
-1.991700e-02,1.690800e-02,-1.494300e-01,-6.408200e-02,1.007600e+01
2.139100e-01,3.726500e-01,-1.373500e-01,-6.408200e-02,9.709300e+00
2.411900e-01,4.545900e-01,-1.345700e-01,-6.408200e-02,9.470800e+00
4.201700e-01,3.794600e-01,-1.371200e-01,-6.408200e-02,1.096800e+01
4.354500e-01,3.341800e-01,-1.386600e-01,-6.408200e-02,1.193200e+01
4.561900e-01,3.116000e-01,-1.394200e-01,-6.408200e-02,1.194600e+01
4.769200e-01,3.051500e-01,-1.396400e-01,-6.408200e-02,1.095600e+01
5.816900e-01,6.949800e-01,-1.264100e-01,-6.408200e-02,1.122400e+01
6.040600e-01,7.232000e-01,-1.254600e-01,-6.408200e-02,1.163900e+01
-8.256100e-01,7.487500e-01,-1.245900e-01,-6.408200e-02,1.048500e+01
-8.689900e-01,8.586900e-01,-1.208600e-01,-6.408200e-02,1.112300e+01
-8.840000e-01,7.357700e-01,-1.250300e-01,-6.408200e-02,1.107300e+01
-8.984600e-01,5.167800e-01,-1.324600e-01,-6.408200e-02,1.027300e+01
6.962800e-01,2.887000e+00,1.073700e+01,-6.408200e-02,9.831800e+00
0,0,-1.500000e-01,-3.204100e-02,1.576800e+01
-7.202900e-02,6.765500e-02,-1.477000e-01,-3.204100e-02,1.431300e+01
-1.364200e-02,1.281700e-01,-1.456500e-01,-3.204100e-02,1.336700e+01
-1.637000e-03,1.369400e-01,-1.453500e-01,-3.204100e-02,1.261800e+01
1.527900e-02,1.783400e-01,-1.439500e-01,-3.204100e-02,1.188900e+01
2.660200e-01,1.918300e-01,-1.434900e-01,-3.204100e-02,1.276700e+01
5.675000e-01,7.084800e-01,-1.259600e-01,-3.204100e-02,1.412000e+01
5.819600e-01,7.392300e-01,-1.249100e-01,-3.204100e-02,1.469000e+01
5.958800e-01,7.682300e-01,-1.239300e-01,-3.204100e-02,1.438900e+01
6.250700e-01,7.956200e-01,-1.230000e-01,-3.204100e-02,1.315900e+01
-7.142900e-01,5.591900e-01,-1.310200e-01,-3.204100e-02,1.196600e+01
-9.358400e-01,7.755900e-01,-1.236800e-01,-3.204100e-02,1.266400e+01
-9.331100e-01,7.364900e-01,-1.250000e-01,-3.204100e-02,1.311700e+01
-9.388400e-01,6.348900e-01,-1.284500e-01,-3.204100e-02,1.217600e+01
-1.016000e+00,7.721200e-01,-1.238000e-01,-3.204100e-02,1.121700e+01
-1.010900e+00,8.421000e-01,-1.214200e-01,-3.204100e-02,1.107500e+01
