0,0,-1.500000e-01,0,1.680500e+01
-4.092600e-02,2.006400e-02,-1.515700e-01,0,1.619600e+01
-7.312100e-02,6.463600e-02,-1.550400e-01,0,1.535000e+01
-1.091400e-02,1.346800e-01,-1.605100e-01,0,1.454000e+01
-4.911100e-03,1.371800e-01,-1.607000e-01,0,1.365700e+01
9.549300e-03,1.765100e-01,-1.637700e-01,0,1.307200e+01
5.525000e-01,6.592900e-01,-2.014400e-01,0,1.419200e+01
5.533200e-01,7.193000e-01,-2.061200e-01,0,1.588000e+01
5.598600e-01,7.428600e-01,-2.079600e-01,0,1.659000e+01
5.806000e-01,7.454700e-01,-2.081600e-01,0,1.641100e+01
5.934200e-01,7.470200e-01,-2.082800e-01,0,1.523600e+01
5.811500e-01,7.963800e-01,-2.121300e-01,0,1.254800e+01
-7.235700e-01,6.572100e-01,-2.012800e-01,0,1.204700e+01
-9.931300e-01,5.986700e-01,-1.967100e-01,0,1.294800e+01
-9.625700e-01,5.580100e-01,-1.935400e-01,0,1.348100e+01
-9.792200e-01,3.701400e-01,-1.788800e-01,0,1.263100e+01
-1.026400e+00,7.654000e-01,-2.097200e-01,0,1.220300e+01
-1.042800e+00,7.463000e-01,-2.082300e-01,0,1.192700e+01
-1.069500e+00,6.601300e-01,-2.015000e-01,0,1.052400e+01
0,0,-1.500000e-01,3.204100e-02,1.580900e+01
-4.092600e-02,2.190100e-02,-1.517100e-01,3.204100e-02,1.518400e+01
-7.312100e-02,6.546400e-02,-1.551100e-01,3.204100e-02,1.433300e+01
-1.227800e-02,1.356700e-01,-1.605900e-01,3.204100e-02,1.351500e+01
-4.911100e-03,1.408000e-01,-1.609900e-01,3.204100e-02,1.262500e+01
1.145900e-02,1.837000e-01,-1.643300e-01,3.204100e-02,1.203200e+01
5.525000e-01,6.638800e-01,-2.018000e-01,3.204100e-02,1.314600e+01
5.533200e-01,7.193600e-01,-2.061200e-01,3.204100e-02,1.480700e+01
5.598600e-01,7.438400e-01,-2.080400e-01,3.204100e-02,1.552300e+01
5.729600e-01,7.540600e-01,-2.088300e-01,3.204100e-02,1.535500e+01
6.013400e-01,7.522900e-01,-2.086900e-01,3.204100e-02,1.416100e+01
-7.328400e-01,6.794000e-01,-2.030100e-01,3.204100e-02,1.101700e+01
-1.012200e+00,5.765200e-01,-1.949800e-01,3.204100e-02,1.186100e+01
-9.724000e-01,5.621700e-01,-1.938600e-01,3.204100e-02,1.231100e+01
-9.792200e-01,3.967700e-01,-1.809600e-01,3.204100e-02,1.145900e+01
-1.026400e+00,7.813800e-01,-2.109600e-01,3.204100e-02,1.114600e+01
-1.042800e+00,7.533300e-01,-2.087800e-01,3.204100e-02,1.077600e+01
0,0,-1.500000e-01,6.408200e-02,9.827000e+00
-2.073600e-02,5.519700e-02,-1.543100e-01,6.408200e-02,9.316200e+00
6.111600e-01,7.604900e-01,-2.093300e-01,6.408200e-02,1.053600e+01
5.934200e-01,8.030000e-01,-2.126500e-01,6.408200e-02,1.152600e+01
6.057000e-01,8.366100e-01,-2.152700e-01,6.408200e-02,1.138700e+01
6.089800e-01,8.764300e-01,-2.183800e-01,6.408200e-02,1.040000e+01
0,0,-1.500000e-01,9.612300e-02,9.476300e+00
5.377600e-01,7.568200e-01,-2.090500e-01,9.612300e-02,1.107100e+01
5.576800e-01,7.651700e-01,-2.097000e-01,9.612300e-02,1.222800e+01
5.855100e-01,7.828200e-01,-2.110800e-01,9.612300e-02,1.255600e+01
6.057000e-01,8.218600e-01,-2.141200e-01,9.612300e-02,1.199600e+01
6.174300e-01,8.844900e-01,-2.190100e-01,9.612300e-02,1.065000e+01
5.380400e-01,9.189000e-01,-2.216900e-01,9.612300e-02,1.008900e+01
-6.973700e-01,1.027100e+00,-2.301400e-01,9.612300e-02,1.040300e+01
-7.571300e-01,1.000300e+00,-2.280400e-01,9.612300e-02,1.082300e+01
-8.190600e-01,9.801200e-01,-2.264700e-01,9.612300e-02,1.026900e+01
3.546900e-01,2.470800e-01,-1.692800e-01,1.281600e-01,9.692500e+00
3.953400e-01,3.324100e-01,-1.759400e-01,1.281600e-01,9.335300e+00
4.452700e-01,4.312600e-01,-1.836500e-01,1.281600e-01,9.397800e+00
4.433600e-01,4.810100e-01,-1.875300e-01,1.281600e-01,9.809700e+00
5.230300e-01,7.587200e-01,-2.092000e-01,1.281600e-01,1.073100e+01
5.424000e-01,7.596100e-01,-2.092700e-01,1.281600e-01,1.189600e+01
5.776000e-01,7.829400e-01,-2.110900e-01,1.281600e-01,1.205300e+01
6.220700e-01,8.266600e-01,-2.145000e-01,1.281600e-01,1.129200e+01
5.844200e-01,9.637000e-01,-2.251900e-01,1.281600e-01,1.032600e+01
6.111600e-01,9.878300e-01,-2.270700e-01,1.281600e-01,1.004300e+01
-7.464900e-01,9.991300e-01,-2.279500e-01,1.281600e-01,1.010900e+01
-8.076000e-01,9.647600e-01,-2.252700e-01,1.281600e-01,1.067600e+01
-8.812700e-01,9.055100e-01,-2.206500e-01,1.281600e-01,1.023900e+01
0,0,-1.500000e-01,1.602100e-01,9.537500e+00
4.638300e-01,2.029200e-01,-1.658300e-01,1.602100e-01,9.736200e+00
5.230300e-01,6.124900e-01,-1.977900e-01,1.602100e-01,1.027900e+01
5.424000e-01,7.463600e-01,-2.082300e-01,1.602100e-01,1.173400e+01
5.617700e-01,7.566400e-01,-2.090300e-01,1.602100e-01,1.242300e+01
5.893300e-01,7.847700e-01,-2.112300e-01,1.602100e-01,1.215400e+01
6.174300e-01,8.672800e-01,-2.176700e-01,1.602100e-01,1.088100e+01
4.469100e-01,4.889800e-01,-1.881500e-01,2.242900e-01,9.963900e+00
4.862000e-01,4.141700e-01,-1.823100e-01,2.242900e-01,1.162500e+01
5.194800e-01,6.685900e-01,-2.021600e-01,2.242900e-01,1.313600e+01
5.459500e-01,7.171200e-01,-2.059500e-01,2.242900e-01,1.371300e+01
5.565900e-01,7.490400e-01,-2.084400e-01,2.242900e-01,1.320500e+01
5.666900e-01,7.642600e-01,-2.096300e-01,2.242900e-01,1.146900e+01
0,0,-1.500000e-01,2.563300e-01,9.460700e+00
4.788300e-01,3.416200e-01,-1.766500e-01,2.563300e-01,1.127400e+01
5.118400e-01,6.523800e-01,-2.009000e-01,2.563300e-01,1.259000e+01
5.380400e-01,7.253300e-01,-2.065900e-01,2.563300e-01,1.316300e+01
5.565900e-01,7.693100e-01,-2.100200e-01,2.563300e-01,1.263500e+01
5.666900e-01,8.458900e-01,-2.160000e-01,2.563300e-01,1.078600e+01
-5.028400e-01,3.322500e+00,-4.092200e-01,-1.089400e+00,1.012300e+01
-4.812900e-01,3.371400e+00,-4.130400e-01,-1.089400e+00,1.063600e+01
-4.591900e-01,3.422400e+00,-4.170200e-01,-1.089400e+00,1.022800e+01
-5.370300e+00,6.571000e+00,-6.626800e-01,-1.089400e+00,1.020700e+01
-1.355500e+00,2.903700e+00,-3.765500e-01,-9.932700e-01,1.039600e+01
-1.395600e+00,2.900400e+00,-3.763000e-01,-9.932700e-01,1.077300e+01
-1.461900e+00,2.895900e+00,-3.759400e-01,-9.932700e-01,1.020700e+01
-1.706900e+00,1.592300e+00,-2.742300e-01,-8.330700e-01,10
-1.769600e+00,1.581700e+00,-2.734100e-01,-8.330700e-01,1.005700e+01
-1.026400e+00,5.874900e+00,-6.083700e-01,-7.689800e-01,1.112700e+01
-1.126300e+00,5.882300e+00,-6.089500e-01,-7.689800e-01,1.203700e+01
-1.227200e+00,5.882800e+00,-6.089900e-01,-7.689800e-01,1.182400e+01
-1.329300e+00,5.905600e+00,-6.107600e-01,-7.689800e-01,1.044400e+01
-1.073100e+00,5.863100e+00,-6.074500e-01,-7.369400e-01,1.163700e+01
-1.173200e+00,5.872000e+00,-6.081400e-01,-7.369400e-01,1.262600e+01
-1.227200e+00,5.890400e+00,-6.095700e-01,-7.369400e-01,1.248300e+01
-1.329300e+00,5.901800e+00,-6.104700e-01,-7.369400e-01,1.107600e+01
-1.073100e+00,5.870000e+00,-6.079900e-01,-7.049000e-01,1.020100e+01
-1.126300e+00,5.896800e+00,-6.100800e-01,-7.049000e-01,1.121800e+01
-1.227200e+00,5.891200e+00,-6.096400e-01,-7.049000e-01,1.120900e+01
-1.281800e+00,5.915300e+00,-6.115200e-01,-7.049000e-01,1.008500e+01
-2.365500e+00,1.785100e+00,-2.892800e-01,-5.126600e-01,1.067600e+01
-2.393300e+00,1.813300e+00,-2.914800e-01,-5.126600e-01,1.072900e+01
-2.492400e+00,1.713500e+00,-2.836900e-01,-5.126600e-01,1.016600e+01
-2.337700e+00,1.718400e+00,-2.840700e-01,-4.806200e-01,1.112600e+01
-2.342300e+00,1.772000e+00,-2.882500e-01,-4.806200e-01,1.193500e+01
-2.346400e+00,1.843900e+00,-2.938600e-01,-4.806200e-01,1.182500e+01
-2.421200e+00,1.835000e+00,-2.931700e-01,-4.806200e-01,1.069200e+01
-2.360600e+00,1.652700e+00,-2.789500e-01,-4.485700e-01,1.049900e+01
-2.342300e+00,1.754900e+00,-2.869200e-01,-4.485700e-01,1.107600e+01
-2.369900e+00,1.806500e+00,-2.909500e-01,-4.485700e-01,1.091300e+01
-2.468600e+00,1.765500e+00,-2.877500e-01,-4.485700e-01,9.775200e+00
0,0,-1.500000e-01,-6.408200e-02,9.781600e+00
-3.410500e-02,3.216200e-03,-1.502500e-01,-6.408200e-02,1.015100e+01
4.889300e-01,7.038400e-01,-2.049100e-01,-6.408200e-02,9.600100e+00
4.589100e-01,7.973700e-01,-2.122100e-01,-6.408200e-02,9.814200e+00
0,0,-1.500000e-01,-3.204100e-02,1.576600e+01
-4.092600e-02,1.689400e-02,-1.513200e-01,-3.204100e-02,1.516600e+01
-7.312100e-02,6.325400e-02,-1.549400e-01,-3.204100e-02,1.432700e+01
-1.091400e-02,1.333500e-01,-1.604000e-01,-3.204100e-02,1.351800e+01
-4.911100e-03,1.339200e-01,-1.604500e-01,-3.204100e-02,1.262600e+01
9.549300e-03,1.733900e-01,-1.635300e-01,-3.204100e-02,1.204000e+01
5.525000e-01,6.587900e-01,-2.014000e-01,-3.204100e-02,1.321300e+01
5.533200e-01,7.191900e-01,-2.061100e-01,-3.204100e-02,1.491400e+01
5.598600e-01,7.420800e-01,-2.079000e-01,-3.204100e-02,1.562400e+01
5.806000e-01,7.435100e-01,-2.080100e-01,-3.204100e-02,1.545000e+01
5.934200e-01,7.402900e-01,-2.077600e-01,-3.204100e-02,1.431900e+01
5.811500e-01,7.755500e-01,-2.105100e-01,-3.204100e-02,1.193000e+01
-7.235700e-01,6.186900e-01,-1.982700e-01,-3.204100e-02,1.113900e+01
-9.835800e-01,6.097300e-01,-1.975700e-01,-3.204100e-02,1.192600e+01
-9.527500e-01,5.672300e-01,-1.942600e-01,-3.204100e-02,1.252000e+01
-9.792200e-01,4.324900e-01,-1.837400e-01,-3.204100e-02,1.169000e+01
-1.036800e+00,7.361700e-01,-2.074400e-01,-3.204100e-02,1.134900e+01
-1.042800e+00,7.170500e-01,-2.059400e-01,-3.204100e-02,11
