0,0,-1.500000e-01,0,1.680900e+01
-7.202900e-02,6.887500e-02,-1.495700e-01,0,1.533500e+01
-1.364200e-02,1.292300e-01,-1.491900e-01,0,1.446200e+01
-4.911100e-03,1.276300e-01,-1.492000e-01,0,1.362700e+01
1.336900e-02,1.707400e-01,-1.489300e-01,0,1.299800e+01
2.592000e-01,1.604800e-01,-1.489900e-01,0,1.340200e+01
5.675000e-01,7.069500e-01,-1.455600e-01,0,1.472900e+01
5.746000e-01,7.474800e-01,-1.453000e-01,0,1.521600e+01
5.653200e-01,7.967900e-01,-1.449900e-01,0,1.479300e+01
5.063900e-01,8.583500e-01,-1.446100e-01,0,1.349200e+01
-8.938200e-01,4.555100e-01,-1.471400e-01,0,1.307200e+01
-9.489300e-01,6.729400e-01,-1.457700e-01,0,1.290500e+01
-1.005700e+00,7.851100e-01,-1.450700e-01,0,1.264900e+01
-1.021500e+00,8.102300e-01,-1.449100e-01,0,1.198900e+01
-1.047700e+00,8.055400e-01,-1.449400e-01,0,1.065800e+01
0,0,-1.500000e-01,3.204100e-02,1.582200e+01
-7.202900e-02,7.057600e-02,-1.495600e-01,3.204100e-02,1.432600e+01
-1.364200e-02,1.307400e-01,-1.491800e-01,3.204100e-02,1.345500e+01
-4.911100e-03,1.279700e-01,-1.492000e-01,3.204100e-02,1.260700e+01
1.336900e-02,1.700200e-01,-1.489300e-01,3.204100e-02,1.194400e+01
2.660200e-01,1.948100e-01,-1.487800e-01,3.204100e-02,1.248000e+01
5.675000e-01,7.086200e-01,-1.455500e-01,3.204100e-02,1.373200e+01
5.598600e-01,7.525300e-01,-1.452700e-01,3.204100e-02,1.420100e+01
4.507300e-01,7.948300e-01,-1.450100e-01,3.204100e-02,1.410900e+01
4.510000e-01,7.794100e-01,-1.451000e-01,3.204100e-02,1.431400e+01
5.402200e-01,8.345900e-01,-1.447600e-01,3.204100e-02,1.396500e+01
6.005200e-01,8.728800e-01,-1.445200e-01,3.204100e-02,1.288200e+01
-9.625700e-01,5.550600e-01,-1.465100e-01,3.204100e-02,1.147100e+01
-9.691200e-01,7.061400e-01,-1.455600e-01,3.204100e-02,1.158800e+01
-1.005700e+00,7.948500e-01,-1.450100e-01,3.204100e-02,1.165100e+01
-1.021500e+00,8.316100e-01,-1.447700e-01,3.204100e-02,1.089400e+01
0,0,-1.500000e-01,6.408200e-02,1.018300e+01
-3.465000e-02,4.205200e-03,-1.499700e-01,6.408200e-02,9.663700e+00
3.890700e-01,4.309300e-01,-1.472900e-01,6.408200e-02,9.463400e+00
4.125300e-01,5.114700e-01,-1.467900e-01,6.408200e-02,9.744800e+00
3.094000e-01,4.322100e-01,-1.472800e-01,6.408200e-02,1.246400e+01
3.972500e-01,8.413000e-01,-1.447100e-01,6.408200e-02,1.326200e+01
5.301200e-01,8.487700e-01,-1.446700e-01,6.408200e-02,1.354000e+01
5.647800e-01,8.602600e-01,-1.445900e-01,6.408200e-02,1.363400e+01
6.005200e-01,8.842800e-01,-1.444400e-01,6.408200e-02,1.253600e+01
6.198900e-01,9.224700e-01,-1.442000e-01,6.408200e-02,1.074900e+01
0,0,-1.500000e-01,9.612300e-02,9.598700e+00
5.816900e-01,6.573100e-01,-1.458700e-01,9.612300e-02,1.008200e+01
4.346300e-01,5.226300e-01,-1.467200e-01,9.612300e-02,1.129700e+01
4.736500e-01,7.583900e-01,-1.452300e-01,9.612300e-02,1.192500e+01
5.143000e-01,7.941300e-01,-1.450100e-01,9.612300e-02,1.244300e+01
5.402200e-01,8.055700e-01,-1.449400e-01,9.612300e-02,1.217200e+01
5.751400e-01,8.354700e-01,-1.447500e-01,9.612300e-02,1.107600e+01
6.111600e-01,9.105000e-01,-1.442800e-01,9.612300e-02,1.024700e+01
5.882400e-01,6.822700e-01,-1.457100e-01,1.281600e-01,1.020400e+01
5.776000e-01,6.694100e-01,-1.457900e-01,1.281600e-01,1.119600e+01
5.647800e-01,6.844000e-01,-1.457000e-01,1.281600e-01,1.115400e+01
5.413100e-01,7.722000e-01,-1.451500e-01,1.281600e-01,1.030700e+01
5.762300e-01,8.913400e-01,-1.444000e-01,1.281600e-01,1.018400e+01
5.852400e-01,9.065000e-01,-1.443000e-01,1.281600e-01,9.962600e+00
4.256300e-01,3.657600e-01,-1.477000e-01,-2.883700e-01,9.588400e+00
4.570000e-01,3.843300e-01,-1.475900e-01,-2.883700e-01,9.583800e+00
-7.792300e-01,1.572500e+00,-1.401200e-01,-2.883700e-01,1.032800e+01
-8.228800e-01,1.608600e+00,-1.398900e-01,-2.883700e-01,1.070500e+01
-8.242400e-01,1.656900e+00,-1.395900e-01,-2.883700e-01,1.001100e+01
-7.803200e-01,1.753900e+00,-1.389800e-01,-2.883700e-01,1.005700e+01
-8.250600e-01,1.769500e+00,-1.388800e-01,-2.883700e-01,1.059000e+01
-8.709000e-01,1.790000e+00,-1.387500e-01,-2.883700e-01,1.040600e+01
-7.775900e-01,1.554900e+00,-1.402300e-01,-2.563300e-01,1.092200e+01
-8.070600e-01,1.565000e+00,-1.401700e-01,-2.563300e-01,1.261200e+01
-8.228800e-01,1.596700e+00,-1.399700e-01,-2.563300e-01,1.305600e+01
-8.531700e-01,1.628200e+00,-1.397700e-01,-2.563300e-01,1.245000e+01
-8.987300e-01,1.657900e+00,-1.395800e-01,-2.563300e-01,1.053400e+01
-7.912300e-01,1.545700e+00,-1.402900e-01,-2.242900e-01,1.067900e+01
-8.070600e-01,1.563400e+00,-1.401800e-01,-2.242900e-01,1.241200e+01
-8.228800e-01,1.595500e+00,-1.399700e-01,-2.242900e-01,1.288000e+01
-8.531700e-01,1.625600e+00,-1.397900e-01,-2.242900e-01,1.229800e+01
-8.840000e-01,1.664200e+00,-1.395400e-01,-2.242900e-01,1.055700e+01
0,0,-1.500000e-01,-1.922500e-01,9.351500e+00
-8.086900e-01,1.603500e+00,-1.399200e-01,-1.922500e-01,1.024100e+01
0,0,-1.500000e-01,-9.612300e-02,9.895500e+00
3.901600e-01,4.731400e-01,-1.470300e-01,-9.612300e-02,9.336200e+00
4.141700e-01,5.147100e-01,-1.467700e-01,-9.612300e-02,9.614900e+00
5.230300e-01,3.176700e-01,-1.480000e-01,-9.612300e-02,1.042100e+01
5.347600e-01,4.443700e-01,-1.472100e-01,-9.612300e-02,1.112700e+01
5.380400e-01,6.921200e-01,-1.456500e-01,-9.612300e-02,1.107200e+01
-4.201700e-02,5.578900e-02,-1.496500e-01,-6.408200e-02,9.660700e+00
4.078900e-01,5.865300e-01,-1.463100e-01,-6.408200e-02,9.918500e+00
4.321800e-01,5.922300e-01,-1.462800e-01,-6.408200e-02,9.929000e+00
4.774700e-01,5.625900e-01,-1.464700e-01,-6.408200e-02,9.709700e+00
4.965700e-01,7.775000e-01,-1.451100e-01,-6.408200e-02,1.080000e+01
4.905600e-01,7.711300e-01,-1.451500e-01,-6.408200e-02,1.147200e+01
5.156600e-01,8.089300e-01,-1.449200e-01,-6.408200e-02,1.095000e+01
-8.785400e-01,4.570200e-01,-1.471300e-01,-6.408200e-02,1.112000e+01
-9.134600e-01,5.068600e-01,-1.468200e-01,-6.408200e-02,1.122500e+01
-9.893100e-01,4.449100e-01,-1.472000e-01,-6.408200e-02,1.002900e+01
0,0,-1.500000e-01,-3.204100e-02,1.577500e+01
-7.202900e-02,6.814900e-02,-1.495700e-01,-3.204100e-02,1.431900e+01
-1.364200e-02,1.260700e-01,-1.492100e-01,-3.204100e-02,1.343200e+01
-4.911100e-03,1.231700e-01,-1.492300e-01,-3.204100e-02,1.262700e+01
1.336900e-02,1.635300e-01,-1.489700e-01,-3.204100e-02,1.203400e+01
5.675000e-01,7.074600e-01,-1.455500e-01,-3.204100e-02,1.371100e+01
5.819600e-01,7.419100e-01,-1.453400e-01,-3.204100e-02,1.421200e+01
6.111600e-01,7.629600e-01,-1.452100e-01,-3.204100e-02,1.392800e+01
6.725500e-01,7.487700e-01,-1.453000e-01,-3.204100e-02,1.296000e+01
4.829200e-01,7.610800e-01,-1.452200e-01,-3.204100e-02,1.204600e+01
-8.643500e-01,5.210000e-01,-1.467300e-01,-3.204100e-02,1.192300e+01
-9.287400e-01,7.388900e-01,-1.453600e-01,-3.204100e-02,1.194400e+01
-9.953100e-01,7.880600e-01,-1.450500e-01,-3.204100e-02,1.159100e+01
-1.021500e+00,8.135600e-01,-1.448900e-01,-3.204100e-02,1.097500e+01
-1.036800e+00,8.215500e-01,-1.448400e-01,-3.204100e-02,9.987900e+00
