0,0,-1.500000e-01,0,1.679200e+01
-7.202900e-02,6.912500e-02,-1.501700e-01,0,1.533700e+01
-1.364200e-02,1.291500e-01,-1.503200e-01,0,1.444500e+01
-3.274100e-03,1.313300e-01,-1.503300e-01,0,1.361500e+01
1.527900e-02,1.745200e-01,-1.504400e-01,0,1.295200e+01
5.456800e-01,6.658400e-01,-1.516700e-01,0,1.413100e+01
5.462200e-01,7.228700e-01,-1.518200e-01,0,1.589800e+01
5.598600e-01,7.391600e-01,-1.518600e-01,0,1.663700e+01
5.729600e-01,7.529600e-01,-1.518900e-01,0,1.646300e+01
5.934200e-01,7.691100e-01,-1.519300e-01,0,1.532500e+01
6.220700e-01,8.256900e-01,-1.520800e-01,0,1.285100e+01
-7.235700e-01,1.448500e-01,-1.503600e-01,0,1.248100e+01
-1.012200e+00,6.326100e-01,-1.515900e-01,0,1.296800e+01
-9.429300e-01,7.149800e-01,-1.518000e-01,0,1.377400e+01
-9.287400e-01,7.276600e-01,-1.518300e-01,0,1.308200e+01
-9.849500e-01,8.304000e-01,-1.520900e-01,0,1.178800e+01
-1.010900e+00,8.162400e-01,-1.520500e-01,0,1.179200e+01
-1.036800e+00,8.241900e-01,-1.520700e-01,0,1.036900e+01
0,0,-1.500000e-01,3.204100e-02,1.580400e+01
-7.202900e-02,7.146700e-02,-1.501800e-01,3.204100e-02,1.434000e+01
-1.364200e-02,1.300400e-01,-1.503300e-01,3.204100e-02,1.346200e+01
-4.911100e-03,1.289400e-01,-1.503200e-01,3.204100e-02,1.262900e+01
1.527900e-02,1.730300e-01,-1.504300e-01,3.204100e-02,1.196000e+01
5.320300e-01,6.698300e-01,-1.516800e-01,3.204100e-02,1.295900e+01
5.462200e-01,7.238600e-01,-1.518200e-01,3.204100e-02,1.480900e+01
5.525000e-01,7.458900e-01,-1.518700e-01,3.204100e-02,1.556100e+01
5.729600e-01,7.523400e-01,-1.518900e-01,3.204100e-02,1.536500e+01
5.855100e-01,7.697500e-01,-1.519300e-01,3.204100e-02,1.413400e+01
-1.012200e+00,6.424000e-01,-1.516100e-01,3.204100e-02,1.188600e+01
-9.134600e-01,7.266000e-01,-1.518300e-01,3.204100e-02,1.276000e+01
-8.984600e-01,7.406700e-01,-1.518600e-01,3.204100e-02,1.219800e+01
-9.642100e-01,8.791800e-01,-1.522100e-01,3.204100e-02,1.061000e+01
-9.895800e-01,8.764500e-01,-1.522000e-01,3.204100e-02,1.053600e+01
0,0,-1.500000e-01,6.408200e-02,9.832400e+00
-2.073600e-02,1.508500e-02,-1.500400e-01,6.408200e-02,9.404600e+00
3.342300e-01,4.619800e-01,-1.511600e-01,6.408200e-02,1.012200e+01
3.192200e-01,4.360700e-01,-1.511000e-01,6.408200e-02,1.093100e+01
6.261600e-01,7.032200e-01,-1.517700e-01,6.408200e-02,1.122000e+01
6.264400e-01,7.508500e-01,-1.518900e-01,6.408200e-02,1.146600e+01
6.409000e-01,7.830100e-01,-1.519700e-01,6.408200e-02,1.097400e+01
9.071900e-01,8.102100e-01,-1.520400e-01,6.408200e-02,1.034000e+01
-7.170200e-01,8.780500e-01,-1.522100e-01,6.408200e-02,1.044500e+01
0,0,-1.500000e-01,9.612300e-02,9.666500e+00
4.540000e-01,5.954200e-01,-1.515000e-01,9.612300e-02,1.034500e+01
4.788300e-01,5.685300e-01,-1.514300e-01,9.612300e-02,1.065800e+01
8.021400e-01,5.413700e-01,-1.513600e-01,9.612300e-02,1.015400e+01
7.042000e-01,7.233700e-01,-1.518200e-01,9.612300e-02,1.029800e+01
-8.689900e-01,7.320600e-01,-1.518400e-01,9.612300e-02,1.058800e+01
-8.643500e-01,8.560800e-01,-1.521500e-01,9.612300e-02,1.074000e+01
-2.406400e+00,2.429100e+00,-1.561000e-01,-1.441800e+00,1.024100e+01
-1.532300e+00,3.785300e+00,-1.595100e-01,-1.281600e+00,9.823500e+00
-1.416600e+00,3.868200e+00,-1.597200e-01,-1.281600e+00,1.067800e+01
-1.428600e+00,3.901300e+00,-1.598000e-01,-1.281600e+00,1.043200e+01
-1.436500e+00,3.820700e+00,-1.596000e-01,-1.249600e+00,1.030000e+01
-1.384400e+00,3.881300e+00,-1.597500e-01,-1.249600e+00,1.080000e+01
-1.396100e+00,3.914000e+00,-1.598400e-01,-1.249600e+00,1.040200e+01
-1.718900e+00,1.175900e+00,-1.529600e-01,-9.612300e-01,1.014500e+01
-1.797500e+00,1.132900e+00,-1.528500e-01,-9.612300e-01,1.062700e+01
-1.877700e+00,1.071800e+00,-1.526900e-01,-9.612300e-01,1.022000e+01
-1.735300e+00,1.087200e+00,-1.527300e-01,-9.291900e-01,1.005700e+01
-1.830700e+00,1.064400e+00,-1.526800e-01,-9.291900e-01,1.068500e+01
-1.911500e+00,1.012400e+00,-1.525400e-01,-9.291900e-01,1.028800e+01
0,0,-1.500000e-01,-8.971500e-01,9.284900e+00
-1.899000e+00,8.458800e-01,-1.521300e-01,-8.971500e-01,1.017200e+01
-1.897300e+00,9.362500e-01,-1.523500e-01,-8.971500e-01,1.069700e+01
-1.911500e+00,9.796700e-01,-1.524600e-01,-8.971500e-01,1.038100e+01
-1.280200e+00,7.237100e-01,-1.518200e-01,-8.651100e-01,9.638100e+00
-1.948100e+00,7.682200e-01,-1.519300e-01,-8.651100e-01,1.007300e+01
-1.930600e+00,8.985200e-01,-1.522600e-01,-8.651100e-01,1.061800e+01
-1.928400e+00,9.736300e-01,-1.524500e-01,-8.651100e-01,1.032600e+01
-1.620700e+00,3.398900e+00,-1.585400e-01,-8.651100e-01,1.046100e+01
-1.576200e+00,3.431500e+00,-1.586200e-01,-8.651100e-01,1.078700e+01
-1.620700e+00,3.411700e+00,-1.585700e-01,-8.651100e-01,1.020500e+01
-1.864000e+00,1.030500e+00,-1.525900e-01,-8.330700e-01,1.057400e+01
-1.911500e+00,1.016900e+00,-1.525600e-01,-8.330700e-01,1.024300e+01
-1.561700e+00,3.398000e+00,-1.585400e-01,-8.330700e-01,1.069600e+01
-1.546400e+00,3.452000e+00,-1.586800e-01,-8.330700e-01,1.108500e+01
-1.590600e+00,3.463800e+00,-1.587100e-01,-8.330700e-01,1.054300e+01
-1.897300e+00,9.656400e-01,-1.524300e-01,-8.010300e-01,1.040700e+01
-1.236500e+00,3.377700e+00,-1.584900e-01,-8.010300e-01,1.193100e+01
-1.276900e+00,3.399800e+00,-1.585400e-01,-8.010300e-01,1.254900e+01
-1.346500e+00,3.408200e+00,-1.585700e-01,-8.010300e-01,1.218400e+01
-1.417100e+00,3.394100e+00,-1.585300e-01,-8.010300e-01,1.084700e+01
-1.168800e+00,3.356700e+00,-1.584400e-01,-7.689800e-01,1.056300e+01
-1.236500e+00,3.376400e+00,-1.584900e-01,-7.689800e-01,1.223400e+01
-1.276900e+00,3.400200e+00,-1.585500e-01,-7.689800e-01,1.286100e+01
-1.317800e+00,3.420800e+00,-1.586000e-01,-7.689800e-01,1.256200e+01
-1.359300e+00,3.430000e+00,-1.586200e-01,-7.689800e-01,1.130000e+01
-1.236500e+00,3.375700e+00,-1.584800e-01,-7.369400e-01,1.061300e+01
-1.220100e+00,3.420600e+00,-1.586000e-01,-7.369400e-01,1.120200e+01
-1.203200e+00,3.463900e+00,-1.587100e-01,-7.369400e-01,1.113600e+01
5.115700e-01,4.132500e-01,-1.510400e-01,-7.049000e-01,9.567100e+00
5.604100e-01,5.392300e-01,-1.513600e-01,-7.049000e-01,1.039000e+01
6.040600e-01,5.894000e-01,-1.514800e-01,-7.049000e-01,1.044200e+01
6.417200e-01,6.170000e-01,-1.515500e-01,-7.049000e-01,9.550000e+00
5.252100e-01,4.889500e-01,-1.512300e-01,-6.728600e-01,9.745900e+00
5.604100e-01,5.722900e-01,-1.514400e-01,-6.728600e-01,1.080800e+01
5.893300e-01,6.334000e-01,-1.515900e-01,-6.728600e-01,1.097800e+01
6.188000e-01,6.825600e-01,-1.517200e-01,-6.728600e-01,1.022100e+01
0,0,-1.500000e-01,-6.087800e-01,9.237000e+00
4.845600e-01,6.163300e-01,-1.515500e-01,-6.087800e-01,9.541200e+00
5.183900e-01,5.622300e-01,-1.514100e-01,-6.087800e-01,1.017700e+01
5.462200e-01,5.797800e-01,-1.514600e-01,-6.087800e-01,1.065400e+01
5.746000e-01,6.079800e-01,-1.515300e-01,-6.087800e-01,1.060900e+01
4.842900e-01,6.150700e-01,-1.515500e-01,-5.767400e-01,9.528900e+00
5.391300e-01,6.149600e-01,-1.515500e-01,-5.767400e-01,1.062800e+01
5.746000e-01,6.597600e-01,-1.516600e-01,-5.767400e-01,1.061700e+01
6.264400e-01,6.991900e-01,-1.517600e-01,-5.767400e-01,9.644900e+00
4.329900e-01,4.316400e-01,-1.510800e-01,-4.165300e-01,1.064700e+01
4.780100e-01,4.747700e-01,-1.511900e-01,-4.165300e-01,1.149300e+01
5.047500e-01,5.199300e-01,-1.513100e-01,-4.165300e-01,1.129700e+01
4.455400e-01,4.754100e-01,-1.511900e-01,-3.844900e-01,9.919900e+00
4.976600e-01,4.866300e-01,-1.512200e-01,-3.844900e-01,1.103100e+01
5.388600e-01,4.974000e-01,-1.512500e-01,-3.844900e-01,1.117100e+01
5.887800e-01,4.823000e-01,-1.512100e-01,-3.844900e-01,1.036800e+01
0,0,-1.500000e-01,-2.563300e-01,9.661100e+00
4.802000e-01,4.547900e-01,-1.511400e-01,-2.563300e-01,9.914000e+00
4.518200e-01,4.484400e-01,-1.511300e-01,-2.563300e-01,1.075500e+01
4.714600e-01,4.502000e-01,-1.511300e-01,-2.563300e-01,1.133800e+01
5.047500e-01,5.086900e-01,-1.512800e-01,-2.563300e-01,1.104700e+01
5.249400e-01,6.006200e-01,-1.515100e-01,-2.563300e-01,1.092200e+01
5.083000e-01,5.430700e-01,-1.513600e-01,-2.563300e-01,1.133700e+01
5.042100e-01,5.592100e-01,-1.514100e-01,-2.563300e-01,1.164000e+01
5.222100e-01,6.380800e-01,-1.516000e-01,-2.563300e-01,1.140600e+01
5.484000e-01,6.780500e-01,-1.517000e-01,-2.563300e-01,1.045000e+01
-8.070600e-01,7.162000e-01,-1.518000e-01,-2.563300e-01,9.898800e+00
0,0,-1.500000e-01,-2.242900e-01,9.613000e+00
-1.391500e-01,5.544000e-01,-1.513900e-01,-2.242900e-01,9.314600e+00
-1.522400e-01,5.845800e-01,-1.514700e-01,-2.242900e-01,9.748300e+00
4.411800e-01,4.481300e-01,-1.511300e-01,-2.242900e-01,9.429700e+00
4.922000e-01,4.508700e-01,-1.511300e-01,-2.242900e-01,1.010300e+01
4.894700e-01,4.640500e-01,-1.511700e-01,-2.242900e-01,1.077600e+01
5.042100e-01,4.859300e-01,-1.512200e-01,-2.242900e-01,1.127400e+01
5.456800e-01,5.716500e-01,-1.514400e-01,-2.242900e-01,1.095200e+01
3.901600e-01,1.927700e-01,-1.504800e-01,-2.242900e-01,1.083200e+01
4.346300e-01,4.039400e-01,-1.510200e-01,-2.242900e-01,1.227300e+01
4.430900e-01,5.275600e-01,-1.513300e-01,-2.242900e-01,1.292000e+01
4.747400e-01,6.266300e-01,-1.515700e-01,-2.242900e-01,1.276800e+01
5.238500e-01,6.968500e-01,-1.517500e-01,-2.242900e-01,1.187100e+01
-8.256100e-01,7.831400e-01,-1.519700e-01,-2.242900e-01,1.014200e+01
-1.326000e-01,6.089500e-01,-1.515300e-01,-1.922500e-01,9.395400e+00
4.845600e-01,5.113000e-01,-1.512900e-01,-1.922500e-01,9.972400e+00
5.320300e-01,5.785200e-01,-1.514500e-01,-1.922500e-01,1.040300e+01
3.830600e-01,1.622600e-01,-1.504100e-01,-1.922500e-01,1.116300e+01
3.978000e-01,3.730200e-01,-1.509400e-01,-1.922500e-01,1.276700e+01
4.201700e-01,4.908800e-01,-1.512300e-01,-1.922500e-01,1.356800e+01
4.430900e-01,5.703700e-01,-1.514300e-01,-1.922500e-01,1.346200e+01
4.829200e-01,6.376500e-01,-1.516000e-01,-1.922500e-01,1.244200e+01
5.413100e-01,5.764200e-01,-1.514500e-01,-1.922500e-01,1.059600e+01
-8.785400e-01,2.183900e-01,-1.505500e-01,-1.922500e-01,9.966400e+00
0,0,-1.500000e-01,-1.602100e-01,9.347100e+00
4.641000e-01,3.098800e-01,-1.507800e-01,-1.602100e-01,9.939900e+00
4.714600e-01,4.141100e-01,-1.510400e-01,-1.602100e-01,1.023000e+01
5.252100e-01,4.949300e-01,-1.512400e-01,-1.602100e-01,1.019800e+01
3.759700e-01,2.223300e-01,-1.505600e-01,-1.602100e-01,1.130100e+01
4.051600e-01,4.160800e-01,-1.510500e-01,-1.602100e-01,1.297500e+01
4.278100e-01,5.033500e-01,-1.512700e-01,-1.602100e-01,1.367700e+01
4.510000e-01,5.653800e-01,-1.514200e-01,-1.602100e-01,1.350200e+01
4.911100e-01,6.218000e-01,-1.515600e-01,-1.602100e-01,1.241900e+01
5.497700e-01,5.872500e-01,-1.514800e-01,-1.602100e-01,1.059000e+01
0,0,-1.500000e-01,-1.281600e-01,9.566500e+00
5.156600e-01,3.859900e-01,-1.509700e-01,-1.281600e-01,1.012600e+01
5.282100e-01,3.739600e-01,-1.509400e-01,-1.281600e-01,1.075800e+01
5.459500e-01,3.236900e-01,-1.508100e-01,-1.281600e-01,1.018400e+01
5.115700e-01,5.935100e-01,-1.514900e-01,-1.281600e-01,1.087100e+01
4.965700e-01,6.269800e-01,-1.515800e-01,-1.281600e-01,1.241200e+01
4.862000e-01,6.281300e-01,-1.515800e-01,-1.281600e-01,1.333700e+01
4.812900e-01,6.216400e-01,-1.515600e-01,-1.281600e-01,1.354200e+01
4.905600e-01,6.224300e-01,-1.515600e-01,-1.281600e-01,1.300800e+01
5.156600e-01,6.649900e-01,-1.516700e-01,-1.281600e-01,1.186300e+01
5.582300e-01,7.945100e-01,-1.520000e-01,-1.281600e-01,1.017500e+01
-8.812700e-01,7.740900e-01,-1.519500e-01,-1.281600e-01,9.964100e+00
0,0,-1.500000e-01,-9.612300e-02,9.792100e+00
2.728400e-04,3.489100e-02,-1.500900e-01,-9.612300e-02,9.469000e+00
3.983400e-01,2.493800e-01,-1.506300e-01,-9.612300e-02,9.847200e+00
3.495100e-01,3.768700e-01,-1.509500e-01,-9.612300e-02,9.657800e+00
3.953400e-01,3.119200e-01,-1.507800e-01,-9.612300e-02,1.009600e+01
4.780100e-01,4.732200e-01,-1.511900e-01,-9.612300e-02,1.005900e+01
5.183900e-01,6.062900e-01,-1.515200e-01,-9.612300e-02,1.098200e+01
4.894700e-01,6.552700e-01,-1.516500e-01,-9.612300e-02,1.276000e+01
4.935600e-01,6.709300e-01,-1.516900e-01,-9.612300e-02,1.373600e+01
5.042100e-01,6.877500e-01,-1.517300e-01,-9.612300e-02,1.382700e+01
5.380400e-01,7.151300e-01,-1.518000e-01,-9.612300e-02,1.313900e+01
5.729600e-01,7.551800e-01,-1.519000e-01,-9.612300e-02,1.191900e+01
5.836000e-01,8.686300e-01,-1.521800e-01,-9.612300e-02,1.016800e+01
0,0,-1.500000e-01,-6.408200e-02,9.814500e+00
3.721500e-01,5.644500e-01,-1.514200e-01,-6.408200e-02,9.948500e+00
4.141700e-01,5.464100e-01,-1.513700e-01,-6.408200e-02,1.035300e+01
4.583700e-01,5.132200e-01,-1.512900e-01,-6.408200e-02,1.029600e+01
4.706500e-01,5.996500e-01,-1.515100e-01,-6.408200e-02,1.076500e+01
4.823800e-01,6.318300e-01,-1.515900e-01,-6.408200e-02,1.219900e+01
4.862000e-01,6.445500e-01,-1.516200e-01,-6.408200e-02,1.310300e+01
4.965700e-01,6.641900e-01,-1.516700e-01,-6.408200e-02,1.328100e+01
5.143000e-01,7.023300e-01,-1.517700e-01,-6.408200e-02,1.275200e+01
5.484000e-01,7.598600e-01,-1.519100e-01,-6.408200e-02,1.158800e+01
-1.002700e+00,6.427200e-01,-1.516200e-01,-6.408200e-02,1.057000e+01
-9.822200e-01,7.297700e-01,-1.518300e-01,-6.408200e-02,1.094600e+01
-9.792200e-01,7.770600e-01,-1.519500e-01,-6.408200e-02,1.033000e+01
0,0,-1.500000e-01,-3.204100e-02,1.577400e+01
-7.202900e-02,6.730400e-02,-1.501700e-01,-3.204100e-02,1.431500e+01
-1.364200e-02,1.270400e-01,-1.503200e-01,-3.204100e-02,1.343600e+01
-4.911100e-03,1.262400e-01,-1.503200e-01,-3.204100e-02,1.258000e+01
1.336900e-02,1.707100e-01,-1.504300e-01,-3.204100e-02,1.195300e+01
5.525000e-01,6.623500e-01,-1.516600e-01,-3.204100e-02,1.320000e+01
5.462200e-01,7.195400e-01,-1.518100e-01,-3.204100e-02,1.496200e+01
5.598600e-01,7.345300e-01,-1.518500e-01,-3.204100e-02,1.569000e+01
5.806000e-01,7.478200e-01,-1.518800e-01,-3.204100e-02,1.548400e+01
6.171600e-01,7.605400e-01,-1.519100e-01,-3.204100e-02,1.432600e+01
-7.142900e-01,4.570700e-01,-1.511500e-01,-3.204100e-02,1.162700e+01
-9.931300e-01,6.632000e-01,-1.516700e-01,-3.204100e-02,1.242400e+01
-9.527500e-01,6.982100e-01,-1.517500e-01,-3.204100e-02,1.301900e+01
-9.287400e-01,6.802200e-01,-1.517100e-01,-3.204100e-02,1.216200e+01
-1.005700e+00,8.056200e-01,-1.520200e-01,-3.204100e-02,1.080600e+01
-1.032100e+00,7.440000e-01,-1.518700e-01,-3.204100e-02,1.099300e+01
