0,0,-1.500000e-01,0,1.679400e+01
-4.092600e-02,2.358700e-02,-1.499700e-01,0,1.617800e+01
-7.312100e-02,6.613100e-02,-1.499000e-01,0,1.531200e+01
-1.091400e-02,1.348700e-01,-1.498000e-01,0,1.448900e+01
-3.274100e-03,1.379400e-01,-1.498000e-01,0,1.364600e+01
9.549300e-03,1.727700e-01,-1.497500e-01,0,1.299800e+01
5.456800e-01,6.661500e-01,-1.490200e-01,0,1.418600e+01
5.533200e-01,7.189400e-01,-1.489500e-01,0,1.587000e+01
5.598600e-01,7.406600e-01,-1.489100e-01,0,1.657800e+01
5.729600e-01,7.467500e-01,-1.489100e-01,0,1.639800e+01
5.855100e-01,7.493000e-01,-1.489000e-01,0,1.523600e+01
5.893300e-01,7.986700e-01,-1.488300e-01,0,1.273300e+01
-8.441600e-01,8.225300e-01,-1.487900e-01,0,1.149600e+01
-9.358400e-01,6.513000e-01,-1.490500e-01,0,1.335200e+01
-9.331100e-01,6.035900e-01,-1.491200e-01,0,1.378200e+01
-9.590300e-01,4.701100e-01,-1.493100e-01,0,1.278700e+01
-1.016000e+00,7.746100e-01,-1.488600e-01,0,1.208400e+01
-1.042800e+00,7.452200e-01,-1.489100e-01,0,1.179900e+01
-1.080400e+00,7.431200e-01,-1.489100e-01,0,1.028100e+01
0,0,-1.500000e-01,3.204100e-02,1.580600e+01
-4.092600e-02,2.802100e-02,-1.499600e-01,3.204100e-02,1.516600e+01
-7.312100e-02,6.961300e-02,-1.499000e-01,3.204100e-02,1.429700e+01
-1.091400e-02,1.358900e-01,-1.498000e-01,3.204100e-02,1.346900e+01
-3.274100e-03,1.411700e-01,-1.497900e-01,3.204100e-02,1.265000e+01
1.145900e-02,1.754700e-01,-1.497400e-01,3.204100e-02,1.199800e+01
5.456800e-01,6.646400e-01,-1.490300e-01,3.204100e-02,1.317200e+01
5.533200e-01,7.193100e-01,-1.489500e-01,3.204100e-02,1.484000e+01
5.598600e-01,7.418500e-01,-1.489100e-01,3.204100e-02,1.556600e+01
5.729600e-01,7.492800e-01,-1.489000e-01,3.204100e-02,1.543900e+01
5.855100e-01,7.591900e-01,-1.488900e-01,3.204100e-02,1.444400e+01
6.057000e-01,7.968400e-01,-1.488300e-01,3.204100e-02,1.243800e+01
-8.905400e-01,7.852300e-01,-1.488500e-01,3.204100e-02,1.118500e+01
-9.358400e-01,6.857500e-01,-1.489900e-01,3.204100e-02,1.280500e+01
-9.429300e-01,6.514200e-01,-1.490400e-01,3.204100e-02,1.313700e+01
-9.792200e-01,4.933800e-01,-1.492800e-01,3.204100e-02,1.197400e+01
-9.953100e-01,8.373900e-01,-1.487700e-01,3.204100e-02,1.089700e+01
-1.021500e+00,8.138200e-01,-1.488100e-01,3.204100e-02,1.095200e+01
0,0,-1.500000e-01,6.408200e-02,1.022100e+01
-8.185100e-04,3.491000e-02,-1.499500e-01,6.408200e-02,9.771300e+00
6.188000e-01,7.046800e-01,-1.489700e-01,6.408200e-02,9.971300e+00
6.417200e-01,7.360500e-01,-1.489200e-01,6.408200e-02,1.049800e+01
6.409000e-01,7.732600e-01,-1.488700e-01,6.408200e-02,1.060700e+01
6.384400e-01,7.901700e-01,-1.488400e-01,6.408200e-02,9.950100e+00
-8.785400e-01,8.322800e-01,-1.487800e-01,6.408200e-02,1.042900e+01
-9.331100e-01,8.091600e-01,-1.488100e-01,6.408200e-02,1.095200e+01
-9.893100e-01,7.863200e-01,-1.488500e-01,6.408200e-02,1.028200e+01
-2.968500e+00,3.342200e+00,-1.451000e-01,-1.121400e+00,1.056300e+01
-2.956500e+00,3.398700e+00,-1.450200e-01,-1.121400e+00,1.119500e+01
-2.943900e+00,3.454500e+00,-1.449400e-01,-1.121400e+00,1.088300e+01
-2.933600e+00,3.365200e+00,-1.450700e-01,-1.089400e+00,1.086400e+01
-2.921300e+00,3.429300e+00,-1.449700e-01,-1.089400e+00,1.149300e+01
-2.943900e+00,3.452500e+00,-1.449400e-01,-1.089400e+00,1.116300e+01
-3.048100e+00,8.566300e+00,1.903500e+00,-1.089400e+00,1.015200e+01
-1.057500e+00,1.667100e+00,-1.475600e-01,-1.057400e+00,1.044700e+01
-1.060200e+00,1.685600e+00,-1.475300e-01,-1.057400e+00,1.019600e+01
-2.898600e+00,3.369000e+00,-1.450600e-01,-1.057400e+00,1.067200e+01
-2.956500e+00,3.393600e+00,-1.450200e-01,-1.057400e+00,1.127200e+01
-2.979400e+00,3.425600e+00,-1.449800e-01,-1.057400e+00,1.098700e+01
-3.048100e+00,8.544600e+00,1.998700e+00,-1.057400e+00,1.013500e+01
-9.320200e-01,1.707000e+00,-1.475000e-01,-9.932700e-01,1.039500e+01
-9.797600e-01,1.722400e+00,-1.474700e-01,-9.932700e-01,1.083700e+01
-1.044400e+00,1.719100e+00,-1.474800e-01,-9.932700e-01,1.062400e+01
-1.659900e+00,3.656000e+00,-1.446400e-01,-9.932700e-01,1.001000e+01
-1.577600e+00,3.735700e+00,-1.445200e-01,-9.932700e-01,1.026400e+01
-1.493500e+00,3.764800e+00,-1.444800e-01,-9.932700e-01,9.856400e+00
-2.876000e+00,3.320800e+00,-1.451300e-01,-9.932700e-01,1.028400e+01
-2.863700e+00,3.422800e+00,-1.449800e-01,-9.932700e-01,1.177500e+01
-2.886100e+00,3.458000e+00,-1.449300e-01,-9.932700e-01,1.230100e+01
-2.873000e+00,3.515300e+00,-1.448500e-01,-9.932700e-01,1.186200e+01
-2.787900e+00,3.627000e+00,-1.446800e-01,-9.932700e-01,1.015400e+01
-4.114400e-01,1.702300e+00,-1.475000e-01,-9.612300e-01,1.022500e+01
-8.703500e-01,1.702500e+00,-1.475000e-01,-9.612300e-01,1.049100e+01
-9.014600e-01,1.719100e+00,-1.474800e-01,-9.612300e-01,1.117800e+01
-9.797600e-01,1.712500e+00,-1.474900e-01,-9.612300e-01,1.160800e+01
-1.044400e+00,1.708700e+00,-1.474900e-01,-9.612300e-01,1.150800e+01
-1.110700e+00,1.682800e+00,-1.475300e-01,-9.612300e-01,1.065500e+01
-1.804000e+00,3.627200e+00,-1.446800e-01,-9.612300e-01,1.014500e+01
-1.596100e+00,3.752800e+00,-1.445000e-01,-9.612300e-01,1.056500e+01
-1.545400e+00,3.801000e+00,-1.444300e-01,-9.612300e-01,1.067000e+01
-2.945300e+00,3.126300e+00,-1.454200e-01,-9.612300e-01,1.033000e+01
-2.863700e+00,3.410400e+00,-1.450000e-01,-9.612300e-01,1.182800e+01
-2.850900e+00,3.485500e+00,-1.448900e-01,-9.612300e-01,1.229700e+01
-2.837500e+00,3.543800e+00,-1.448000e-01,-9.612300e-01,1.168500e+01
-4.035300e-01,1.676900e+00,-1.475400e-01,-9.291900e-01,1.046400e+01
-4.114400e-01,1.723100e+00,-1.474700e-01,-9.291900e-01,1.092600e+01
-4.193500e-01,1.770000e+00,-1.474100e-01,-9.291900e-01,1.043600e+01
-7.803200e-01,1.711200e+00,-1.474900e-01,-9.291900e-01,1.046100e+01
-7.792300e-01,1.748000e+00,-1.474400e-01,-9.291900e-01,1.057600e+01
-1.042000e+00,1.683000e+00,-1.475300e-01,-9.291900e-01,1.145000e+01
-1.060200e+00,1.701200e+00,-1.475100e-01,-9.291900e-01,1.157600e+01
-1.700100e+00,1.600600e+00,-1.476500e-01,-9.291900e-01,1.104800e+01
-1.744000e+00,1.603900e+00,-1.476500e-01,-9.291900e-01,1.092300e+01
6.548100e-01,2.708600e+00,-1.460300e-01,-9.291900e-01,1.042500e+01
-1.364200e+00,3.208200e+00,-1.453000e-01,-9.291900e-01,1.060800e+01
-1.432900e+00,3.215700e+00,-1.452900e-01,-9.291900e-01,1.048000e+01
-1.532300e+00,3.787700e+00,-1.444500e-01,-9.291900e-01,1.052300e+01
-1.513200e+00,3.828800e+00,-1.443900e-01,-9.291900e-01,1.050500e+01
-2.863700e+00,3.426000e+00,-1.449800e-01,-9.291900e-01,1.070000e+01
-2.850900e+00,3.487400e+00,-1.448900e-01,-9.291900e-01,1.111100e+01
-4.035300e-01,1.679400e+00,-1.475400e-01,-8.971500e-01,1.046600e+01
-3.972500e-01,1.730400e+00,-1.474600e-01,-8.971500e-01,1.052500e+01
-8.253400e-01,1.637300e+00,-1.476000e-01,-8.971500e-01,1.020600e+01
-8.097800e-01,1.711900e+00,-1.474900e-01,-8.971500e-01,1.121900e+01
-7.775900e-01,1.754700e+00,-1.474300e-01,-8.971500e-01,1.104100e+01
-1.336900e+00,3.211100e+00,-1.452900e-01,-8.971500e-01,1.080000e+01
-1.405400e+00,3.233600e+00,-1.452600e-01,-8.971500e-01,1.086600e+01
-1.550800e+00,3.742200e+00,-1.445100e-01,-8.971500e-01,1.019900e+01
-1.628000e+00,3.747700e+00,-1.445100e-01,-8.971500e-01,1.037600e+01
-1.802900e+00,3.700500e+00,-1.445700e-01,-8.971500e-01,1.011100e+01
-1.527900e+00,4.642900e+00,-1.431900e-01,-8.971500e-01,1.005600e+01
-1.808100e+00,4.574500e+00,-1.432900e-01,-8.971500e-01,9.929700e+00
-3.025200e+00,8.657900e+00,-1.373100e-01,-8.971500e-01,1.023600e+01
-3.109000e+00,8.698700e+00,-1.372500e-01,-8.971500e-01,1.052800e+01
-7.953200e-01,1.726500e+00,-1.474700e-01,-8.651100e-01,1.030400e+01
-7.028300e-01,1.762900e+00,-1.474200e-01,-8.651100e-01,1.119700e+01
-7.464900e-01,1.793900e+00,-1.473700e-01,-8.651100e-01,1.155800e+01
-8.070600e-01,1.812900e+00,-1.473400e-01,-8.651100e-01,1.101000e+01
4.297200e-01,2.583800e+00,-1.462100e-01,-8.651100e-01,1.074600e+01
4.561900e-01,2.611700e+00,-1.461700e-01,-8.651100e-01,1.111100e+01
4.411800e-01,2.639900e+00,-1.461300e-01,-8.651100e-01,1.071900e+01
-1.537400e+00,3.709500e+00,-1.445600e-01,-8.651100e-01,1.033000e+01
-1.677400e+00,3.681700e+00,-1.446000e-01,-8.651100e-01,1.054800e+01
-1.851500e+00,3.634500e+00,-1.446700e-01,-8.651100e-01,1.027900e+01
-2.745300e+00,3.513600e+00,-1.448500e-01,-8.651100e-01,1.039300e+01
-2.766600e+00,3.539300e+00,-1.448100e-01,-8.651100e-01,1.069400e+01
-5.706400e+00,5.818400e+00,-1.414700e-01,-8.651100e-01,1.037200e+01
-3.036700e+00,8.741500e+00,-1.371800e-01,-8.651100e-01,1.034400e+01
-3.688800e-01,1.700500e+00,-1.475100e-01,-8.330700e-01,1.036300e+01
-8.987300e-01,1.641900e+00,-1.475900e-01,-8.330700e-01,1.118400e+01
-9.153700e-01,1.672400e+00,-1.475500e-01,-8.330700e-01,1.238300e+01
-9.625700e-01,1.689500e+00,-1.475200e-01,-8.330700e-01,1.269000e+01
-1.010900e+00,1.705300e+00,-1.475000e-01,-8.330700e-01,1.240200e+01
-1.091900e+00,1.701400e+00,-1.475100e-01,-8.330700e-01,1.161200e+01
4.706500e-01,2.575000e+00,-1.462200e-01,-8.330700e-01,1.124600e+01
4.769200e-01,2.610700e+00,-1.461700e-01,-8.330700e-01,1.152700e+01
4.621900e-01,2.648500e+00,-1.461200e-01,-8.330700e-01,1.079300e+01
-1.631600e+00,2.703800e+00,-1.460400e-01,-8.330700e-01,1.019400e+01
-7.293000e-01,3.368700e+00,-1.450600e-01,-8.330700e-01,1.075500e+01
-9.276500e-01,3.366800e+00,-1.450600e-01,-8.330700e-01,1.056700e+01
-1.543200e+00,3.160600e+00,-1.453700e-01,-8.330700e-01,1.038500e+01
-1.487500e+00,3.733400e+00,-1.445300e-01,-8.330700e-01,1.014400e+01
-1.628000e+00,3.728400e+00,-1.445300e-01,-8.330700e-01,1.034300e+01
-2.745300e+00,3.521700e+00,-1.448400e-01,-8.330700e-01,1.076500e+01
-2.695600e+00,3.599500e+00,-1.447200e-01,-8.330700e-01,1.069100e+01
-5.514100e+00,6.003200e+00,-1.412000e-01,-8.330700e-01,1.005200e+01
-5.537500e+00,5.953400e+00,-1.412700e-01,-8.330700e-01,9.870400e+00
-4.256300e-01,1.221000e+00,-1.482100e-01,-8.010300e-01,1.015700e+01
-4.698300e-01,1.242100e+00,-1.481800e-01,-8.010300e-01,1.042300e+01
-5.042100e-01,1.232300e+00,-1.481900e-01,-8.010300e-01,9.932200e+00
-3.478700e-01,1.701500e+00,-1.475100e-01,-8.010300e-01,1.145200e+01
-3.688800e-01,1.719300e+00,-1.474800e-01,-8.010300e-01,1.153800e+01
-3.615100e-01,1.742400e+00,-1.474500e-01,-8.010300e-01,1.065600e+01
-9.282000e-01,1.633600e+00,-1.476100e-01,-8.010300e-01,1.128600e+01
-9.303800e-01,1.664200e+00,-1.475600e-01,-8.010300e-01,1.263200e+01
-9.625700e-01,1.687000e+00,-1.475300e-01,-8.010300e-01,1.310900e+01
-1.010900e+00,1.702500e+00,-1.475000e-01,-8.010300e-01,1.303700e+01
-1.060200e+00,1.713900e+00,-1.474900e-01,-8.010300e-01,1.242000e+01
-1.046300e+00,1.754000e+00,-1.474300e-01,-8.010300e-01,1.091800e+01
4.911100e-01,2.572400e+00,-1.462300e-01,-8.010300e-01,1.041400e+01
5.598600e-01,2.590100e+00,-1.462000e-01,-8.010300e-01,1.049900e+01
-7.833200e-01,3.284300e+00,-1.451800e-01,-8.010300e-01,1.019800e+01
-9.549300e-01,3.293900e+00,-1.451700e-01,-8.010300e-01,1.025500e+01
-1.192300e+00,3.738600e+00,-1.445200e-01,-8.010300e-01,1.031400e+01
-4.565100e+00,4.213900e+00,-1.438200e-01,-8.010300e-01,1.008300e+01
-4.737300e+00,4.078500e+00,-1.440200e-01,-8.010300e-01,1.004900e+01
-3.317700e-01,9.214200e-01,-1.486500e-01,-7.689800e-01,9.682300e+00
-3.691500e-01,1.025400e+00,-1.485000e-01,-7.689800e-01,1.015000e+01
-4.081700e-01,1.085400e+00,-1.484100e-01,-7.689800e-01,9.994900e+00
-4.147100e-01,1.243200e+00,-1.481800e-01,-7.689800e-01,1.109800e+01
-4.474500e-01,1.264500e+00,-1.481500e-01,-7.689800e-01,1.159500e+01
-4.812900e-01,1.276700e+00,-1.481300e-01,-7.689800e-01,1.125600e+01
8.976400e-02,1.631500e+00,-1.476100e-01,-7.689800e-01,1.099400e+01
-3.617800e-01,1.698500e+00,-1.475100e-01,-7.689800e-01,1.142700e+01
-9.303800e-01,1.672700e+00,-1.475500e-01,-7.689800e-01,1.145200e+01
-9.625700e-01,1.693400e+00,-1.475200e-01,-7.689800e-01,1.268100e+01
-1.026400e+00,1.693700e+00,-1.475200e-01,-7.689800e-01,1.329900e+01
-1.060200e+00,1.708500e+00,-1.475000e-01,-7.689800e-01,1.310500e+01
-1.078500e+00,1.730700e+00,-1.474600e-01,-7.689800e-01,1.196000e+01
-1.613800e+00,1.578700e+00,-1.476900e-01,-7.689800e-01,1.075300e+01
-1.602700e+00,1.642800e+00,-1.475900e-01,-7.689800e-01,1.089200e+01
-1.582500e+00,3.092800e+00,-1.454700e-01,-7.689800e-01,1.034000e+01
-1.873900e+00,2.967500e+00,-1.456500e-01,-7.689800e-01,1.034200e+01
-3.288200e+00,3.131900e+00,-1.454100e-01,-7.689800e-01,1.009200e+01
-3.277300e+00,3.144700e+00,-1.453900e-01,-7.689800e-01,1.010400e+01
-3.666900e-01,9.803500e-01,-1.485600e-01,-7.369400e-01,1.043100e+01
-3.961600e-01,1.036200e+00,-1.484800e-01,-7.369400e-01,1.109600e+01
-4.174400e-01,1.080900e+00,-1.484200e-01,-7.369400e-01,1.096900e+01
-4.488200e-01,1.116100e+00,-1.483600e-01,-7.369400e-01,1.012400e+01
-4.250800e-01,1.255600e+00,-1.481600e-01,-7.369400e-01,1.113100e+01
-4.583700e-01,1.256500e+00,-1.481600e-01,-7.369400e-01,1.087900e+01
-1.023700e+00,1.666300e+00,-1.475600e-01,-7.369400e-01,1.209000e+01
-1.057500e+00,1.684300e+00,-1.475300e-01,-7.369400e-01,1.323400e+01
-1.076100e+00,1.709100e+00,-1.474900e-01,-7.369400e-01,1.332500e+01
-1.110700e+00,1.722800e+00,-1.474700e-01,-7.369400e-01,1.243200e+01
-1.578400e+00,1.606800e+00,-1.476400e-01,-7.369400e-01,1.117700e+01
-1.584600e+00,1.650500e+00,-1.475800e-01,-7.369400e-01,1.137300e+01
-1.535500e+00,1.747700e+00,-1.474400e-01,-7.369400e-01,1.043600e+01
-2.689100e+00,3.554400e+00,-1.447900e-01,-7.369400e-01,1.050000e+01
-2.886100e+00,3.440500e+00,-1.449600e-01,-7.369400e-01,1.093800e+01
-3.085800e+00,3.322600e+00,-1.451300e-01,-7.369400e-01,1.106200e+01
-3.288200e+00,3.180500e+00,-1.453400e-01,-7.369400e-01,1.088100e+01
-3.385400e+00,3.121700e+00,-1.454200e-01,-7.369400e-01,1.010000e+01
-3.841600e-01,1.007700e+00,-1.485200e-01,-7.049000e-01,1.018300e+01
-4.051600e-01,1.044100e+00,-1.484700e-01,-7.049000e-01,1.092600e+01
-4.267200e-01,1.077400e+00,-1.484200e-01,-7.049000e-01,1.091300e+01
-4.392700e-01,1.118800e+00,-1.483600e-01,-7.049000e-01,1.013300e+01
-9.603900e-01,1.663300e+00,-1.475600e-01,-7.049000e-01,1.077000e+01
-1.023700e+00,1.662200e+00,-1.475600e-01,-7.049000e-01,1.238300e+01
-1.057500e+00,1.685800e+00,-1.475300e-01,-7.049000e-01,1.327800e+01
-1.076100e+00,1.715900e+00,-1.474800e-01,-7.049000e-01,1.327500e+01
-1.126800e+00,1.721500e+00,-1.474800e-01,-7.049000e-01,1.231600e+01
-1.984100e+00,2.915600e+00,-1.457300e-01,-7.049000e-01,1.024000e+01
-2.003700e+00,2.914300e+00,-1.457300e-01,-7.049000e-01,1.009900e+01
-2.828800e+00,3.458800e+00,-1.449300e-01,-7.049000e-01,1.045800e+01
-2.956500e+00,3.389300e+00,-1.450300e-01,-7.049000e-01,1.099400e+01
-3.085800e+00,3.317900e+00,-1.451400e-01,-7.049000e-01,1.093600e+01
-4.501800e-01,1.043800e+00,-1.484700e-01,-6.728600e-01,9.918800e+00
-4.545500e-01,1.058600e+00,-1.484500e-01,-6.728600e-01,9.725200e+00
-4.139000e-01,1.289200e+00,-1.481100e-01,-6.728600e-01,1.065600e+01
-4.698300e-01,1.337600e+00,-1.480400e-01,-6.728600e-01,1.091400e+01
-4.927500e-01,1.380800e+00,-1.479800e-01,-6.728600e-01,1.046800e+01
-8.253400e-01,1.704000e+00,-1.475000e-01,-6.728600e-01,1.066600e+01
-1.039000e+00,1.652800e+00,-1.475800e-01,-6.728600e-01,1.199400e+01
-1.088600e+00,1.663500e+00,-1.475600e-01,-6.728600e-01,1.287500e+01
-1.107700e+00,1.695500e+00,-1.475100e-01,-6.728600e-01,1.278400e+01
-1.175100e+00,1.691500e+00,-1.475200e-01,-6.728600e-01,1.168600e+01
-1.342400e+00,1.584500e+00,-1.476800e-01,-6.728600e-01,1.020900e+01
-7.980500e-01,2.491000e+00,-1.463500e-01,-6.728600e-01,1.010500e+01
-2.149400e+00,2.782000e+00,-1.459200e-01,-6.728600e-01,1.024900e+01
-1.920200e+00,2.998300e+00,-1.456000e-01,-6.728600e-01,1.022900e+01
-1.475500e+00,3.279100e+00,-1.451900e-01,-6.728600e-01,1.012500e+01
-5.647800e-02,7.571100e-01,-1.488900e-01,-6.408200e-01,9.607700e+00
-5.893300e-02,7.890800e-01,-1.488400e-01,-6.408200e-01,9.646800e+00
-3.132200e-01,1.316500e+00,-1.480700e-01,-6.408200e-01,1.011000e+01
-3.208600e-01,1.371800e+00,-1.479900e-01,-6.408200e-01,1.016700e+01
-7.803200e-01,1.688500e+00,-1.475200e-01,-6.408200e-01,1.104200e+01
-7.639500e-01,1.701200e+00,-1.475100e-01,-6.408200e-01,1.173700e+01
-7.153800e-01,1.688700e+00,-1.475200e-01,-6.408200e-01,1.124000e+01
-1.234300e+00,1.531200e+00,-1.477600e-01,-6.408200e-01,1.053200e+01
-1.236500e+00,3.377800e+00,-1.450500e-01,-6.408200e-01,1.047900e+01
-1.362000e+00,3.362600e+00,-1.450700e-01,-6.408200e-01,1.037100e+01
1.255100e-02,6.622000e-01,-1.490300e-01,-6.087800e-01,9.852900e+00
-3.928900e-02,7.265900e-01,-1.489300e-01,-6.087800e-01,1.001500e+01
-6.138900e-02,7.348300e-01,-1.489200e-01,-6.087800e-01,9.788400e+00
-7.792300e-01,1.737600e+00,-1.474500e-01,-6.087800e-01,1.095600e+01
-1.150800e+00,1.589100e+00,-1.476700e-01,-6.087800e-01,1.081600e+01
-1.202700e+00,1.600600e+00,-1.476500e-01,-6.087800e-01,1.129500e+01
-1.255600e+00,1.581700e+00,-1.476800e-01,-6.087800e-01,1.063200e+01
-1.124100e+00,3.412100e+00,-1.450000e-01,-6.087800e-01,1.021500e+01
-1.248500e+00,3.409300e+00,-1.450000e-01,-6.087800e-01,1.010500e+01
-2.401000e-02,5.311400e-01,-1.492200e-01,-5.767400e-01,9.325100e+00
-1.047700e-01,7.687300e-01,-1.488700e-01,-5.767400e-01,9.550400e+00
-8.185100e-02,7.550600e-01,-1.488900e-01,-5.767400e-01,9.545200e+00
-1.026400e+00,1.685900e+00,-1.475300e-01,-5.767400e-01,1.046400e+01
-1.123500e+00,1.671000e+00,-1.475500e-01,-5.767400e-01,1.086900e+01
-1.239500e+00,1.617000e+00,-1.476300e-01,-5.767400e-01,1.059400e+01
-1.447100e+00,3.254000e+00,-1.452300e-01,-5.767400e-01,1.003000e+01
-1.433200e+00,3.299200e+00,-1.451600e-01,-5.767400e-01,1.064300e+01
-1.475500e+00,3.315600e+00,-1.451400e-01,-5.767400e-01,1.017000e+01
-1.574800e+00,3.534400e+00,-1.448200e-01,-5.767400e-01,1.089500e+01
-1.589000e+00,3.574100e+00,-1.447600e-01,-5.767400e-01,1.097100e+01
-1.480700e+00,6.841000e+00,-1.399700e-01,-5.767400e-01,1.052400e+01
-1.543200e+00,6.872000e+00,-1.399300e-01,-5.767400e-01,1.212900e+01
-1.550800e+00,6.910500e+00,-1.398700e-01,-5.767400e-01,1.238900e+01
-1.669800e+00,6.905500e+00,-1.398800e-01,-5.767400e-01,1.136800e+01
-1.398300e+00,7.002300e+00,-1.397300e-01,-5.767400e-01,1.111700e+01
-1.461300e+00,7.040900e+00,-1.396800e-01,-5.767400e-01,1.073200e+01
-6.002400e-02,5.544000e-01,-1.491900e-01,-5.447000e-01,9.365500e+00
-1.375100e-01,7.406300e-01,-1.489100e-01,-5.447000e-01,9.501200e+00
-1.432400e-01,8.022500e-01,-1.488200e-01,-5.447000e-01,9.393200e+00
-9.486600e-01,1.750000e+00,-1.474300e-01,-5.447000e-01,1.053300e+01
-9.811300e-01,1.767700e+00,-1.474100e-01,-5.447000e-01,1.048600e+01
-1.574800e+00,3.527500e+00,-1.448300e-01,-5.447000e-01,1.045700e+01
-1.558500e+00,3.586600e+00,-1.447400e-01,-5.447000e-01,1.068800e+01
-3.653900e+00,2.282700e+00,-1.466500e-01,-5.447000e-01,9.894600e+00
-3.785600e+00,2.131700e+00,-1.468700e-01,-5.447000e-01,1.002900e+01
-1.425900e+00,6.860600e+00,-1.399400e-01,-5.447000e-01,1.104100e+01
-1.488100e+00,6.883300e+00,-1.399100e-01,-5.447000e-01,1.248900e+01
-1.550800e+00,6.908200e+00,-1.398700e-01,-5.447000e-01,1.262000e+01
-1.669800e+00,6.923900e+00,-1.398500e-01,-5.447000e-01,1.093300e+01
-1.398300e+00,7.019200e+00,-1.397100e-01,-5.447000e-01,1.094600e+01
-1.517500e+00,7.017500e+00,-1.397100e-01,-5.447000e-01,1.064300e+01
2.300000e-01,9.592100e+00,-1.359400e-01,-5.447000e-01,9.980800e+00
4.965700e-01,7.966200e-01,-1.488300e-01,-5.126600e-01,9.516800e+00
-1.488100e+00,6.895700e+00,-1.398900e-01,-5.126600e-01,1.034000e+01
-1.550800e+00,6.915300e+00,-1.398600e-01,-5.126600e-01,1.065900e+01
-1.558500e+00,6.942300e+00,-1.398200e-01,-5.126600e-01,1.081800e+01
-1.510200e+00,6.983900e+00,-1.397600e-01,-5.126600e-01,1.051000e+01
4.583700e-01,9.767100e+00,-1.356800e-01,-5.126600e-01,1.102500e+01
6.133400e-01,9.793700e+00,-1.356400e-01,-5.126600e-01,1.174200e+01
6.155200e-01,9.827700e+00,-1.355900e-01,-5.126600e-01,1.145900e+01
3.088500e-01,9.740800e+00,-1.357200e-01,-5.126600e-01,1.015600e+01
-3.203700e+00,2.341800e+00,-1.465700e-01,-4.806200e-01,1.033000e+01
6.875500e-01,9.723400e+00,-1.357400e-01,-4.806200e-01,1.119100e+01
6.900100e-01,9.760300e+00,-1.356900e-01,-4.806200e-01,1.186000e+01
6.924600e-01,9.809000e+00,-1.356200e-01,-4.806200e-01,1.154000e+01
9.265600e-01,9.839400e+00,-1.355700e-01,-4.806200e-01,1.027400e+01
0,0,-1.500000e-01,-2.242900e-01,9.572400e+00
4.190800e-01,4.457400e-01,-1.493500e-01,-2.242900e-01,1.036100e+01
4.501800e-01,5.210700e-01,-1.492400e-01,-2.242900e-01,1.078800e+01
4.681900e-01,5.723600e-01,-1.491600e-01,-2.242900e-01,1.083100e+01
4.420000e-01,5.610800e-01,-1.491800e-01,-2.242900e-01,1.180400e+01
4.583700e-01,6.314200e-01,-1.490700e-01,-2.242900e-01,1.280700e+01
4.905600e-01,7.144500e-01,-1.489500e-01,-2.242900e-01,1.306700e+01
5.156600e-01,7.628700e-01,-1.488800e-01,-2.242900e-01,1.258700e+01
4.990200e-01,7.407800e-01,-1.489100e-01,-2.242900e-01,1.157700e+01
4.627300e-01,6.579700e-01,-1.490400e-01,-2.242900e-01,1.072400e+01
0,0,-1.500000e-01,-1.922500e-01,9.568900e+00
5.249400e-01,6.460500e-01,-1.490500e-01,-1.922500e-01,1.068300e+01
4.641000e-01,6.238000e-01,-1.490900e-01,-1.922500e-01,1.226700e+01
4.736500e-01,6.619100e-01,-1.490300e-01,-1.922500e-01,1.324500e+01
5.143000e-01,7.203900e-01,-1.489400e-01,-1.922500e-01,1.343600e+01
5.402200e-01,7.663200e-01,-1.488800e-01,-1.922500e-01,1.285900e+01
5.413100e-01,7.836100e-01,-1.488500e-01,-1.922500e-01,1.155100e+01
5.151200e-01,7.406800e-01,-1.489100e-01,-1.922500e-01,1.038600e+01
4.024400e-01,6.001200e-01,-1.491200e-01,-1.602100e-01,1.008800e+01
4.346300e-01,4.877000e-01,-1.492800e-01,-1.602100e-01,1.258300e+01
4.507300e-01,5.860500e-01,-1.491400e-01,-1.602100e-01,1.346600e+01
4.826500e-01,6.697200e-01,-1.490200e-01,-1.602100e-01,1.338100e+01
5.320300e-01,7.441700e-01,-1.489100e-01,-1.602100e-01,1.265900e+01
5.497700e-01,7.770000e-01,-1.488600e-01,-1.602100e-01,1.123400e+01
6.111600e-01,7.132300e-01,-1.489500e-01,-1.602100e-01,1.000200e+01
6.302600e-01,7.938100e-01,-1.488400e-01,-1.602100e-01,1.040400e+01
6.493600e-01,8.508200e-01,-1.487500e-01,-1.602100e-01,9.563400e+00
4.016200e-01,5.780600e-01,-1.491500e-01,-1.281600e-01,9.612600e+00
4.387200e-01,6.075200e-01,-1.491100e-01,-1.281600e-01,9.948700e+00
4.365400e-01,4.360200e-01,-1.493600e-01,-1.281600e-01,1.026100e+01
3.978000e-01,3.385200e-01,-1.495000e-01,-1.281600e-01,1.319100e+01
4.048900e-01,5.191100e-01,-1.492400e-01,-1.281600e-01,1.363700e+01
4.193500e-01,6.322500e-01,-1.490700e-01,-1.281600e-01,1.320600e+01
4.338100e-01,7.335100e-01,-1.489200e-01,-1.281600e-01,1.216500e+01
4.651900e-01,8.156600e-01,-1.488000e-01,-1.281600e-01,1.047200e+01
6.198900e-01,8.460100e-01,-1.487600e-01,-1.281600e-01,1.140900e+01
6.302600e-01,8.662200e-01,-1.487300e-01,-1.281600e-01,1.182400e+01
6.493600e-01,8.652500e-01,-1.487300e-01,-1.281600e-01,1.099500e+01
0,0,-1.500000e-01,-9.612300e-02,9.791700e+00
4.392700e-01,5.704100e-01,-1.491600e-01,-9.612300e-02,9.394800e+00
4.452700e-01,5.946200e-01,-1.491300e-01,-9.612300e-02,1.056100e+01
4.297200e-01,4.489800e-01,-1.493400e-01,-9.612300e-02,1.118300e+01
5.746000e-01,7.155000e-01,-1.489500e-01,-9.612300e-02,1.341600e+01
6.035200e-01,7.650100e-01,-1.488800e-01,-9.612300e-02,1.327900e+01
6.329800e-01,7.527400e-01,-1.489000e-01,-9.612300e-02,1.316100e+01
6.220700e-01,7.807600e-01,-1.488600e-01,-9.612300e-02,1.224800e+01
6.005200e-01,7.843400e-01,-1.488500e-01,-9.612300e-02,1.092700e+01
6.024300e-01,8.545200e-01,-1.487500e-01,-9.612300e-02,1.186200e+01
6.302600e-01,8.667000e-01,-1.487300e-01,-9.612300e-02,1.219600e+01
6.586300e-01,8.774200e-01,-1.487100e-01,-9.612300e-02,1.138200e+01
0,0,-1.500000e-01,-6.408200e-02,1.014800e+01
-1.473300e-02,1.656200e-02,-1.499800e-01,-6.408200e-02,9.926100e+00
4.433600e-01,4.159500e-01,-1.493900e-01,-6.408200e-02,1.036800e+01
5.672300e-01,7.233400e-01,-1.489400e-01,-6.408200e-02,1.340200e+01
5.653200e-01,7.864800e-01,-1.488500e-01,-6.408200e-02,1.373300e+01
5.617700e-01,7.663800e-01,-1.488800e-01,-6.408200e-02,1.379600e+01
5.565900e-01,7.702200e-01,-1.488700e-01,-6.408200e-02,1.315000e+01
5.582300e-01,7.910300e-01,-1.488400e-01,-6.408200e-02,1.178400e+01
6.111600e-01,8.439300e-01,-1.487600e-01,-6.408200e-02,1.145000e+01
6.392600e-01,8.624900e-01,-1.487400e-01,-6.408200e-02,1.167500e+01
6.957400e-01,8.395300e-01,-1.487700e-01,-6.408200e-02,1.083500e+01
-8.689900e-01,8.370700e-01,-1.487700e-01,-6.408200e-02,1.131900e+01
-9.036400e-01,8.008500e-01,-1.488300e-01,-6.408200e-02,1.170600e+01
-9.287400e-01,7.744100e-01,-1.488600e-01,-6.408200e-02,1.118600e+01
-9.538400e-01,6.618600e-01,-1.490300e-01,-6.408200e-02,9.835300e+00
0,0,-1.500000e-01,-3.204100e-02,1.576100e+01
-4.092600e-02,1.784500e-02,-1.499700e-01,-3.204100e-02,1.515300e+01
-7.312100e-02,6.242400e-02,-1.499100e-01,-3.204100e-02,1.428900e+01
-1.091400e-02,1.338000e-01,-1.498000e-01,-3.204100e-02,1.347200e+01
-3.274100e-03,1.341400e-01,-1.498000e-01,-3.204100e-02,1.261400e+01
1.145900e-02,1.673900e-01,-1.497500e-01,-3.204100e-02,1.196200e+01
5.456800e-01,6.680800e-01,-1.490200e-01,-3.204100e-02,1.323600e+01
5.533200e-01,7.190700e-01,-1.489500e-01,-3.204100e-02,1.493500e+01
5.672300e-01,7.384200e-01,-1.489200e-01,-3.204100e-02,1.561700e+01
5.806000e-01,7.487200e-01,-1.489000e-01,-3.204100e-02,1.539900e+01
5.776000e-01,7.687800e-01,-1.488700e-01,-3.204100e-02,1.424200e+01
5.565900e-01,8.155800e-01,-1.488000e-01,-3.204100e-02,1.288800e+01
6.258900e-01,8.308900e-01,-1.487800e-01,-3.204100e-02,1.173000e+01
-9.167400e-01,4.721200e-01,-1.493100e-01,-3.204100e-02,1.208800e+01
-9.232800e-01,5.354200e-01,-1.492200e-01,-3.204100e-02,1.274000e+01
-9.590300e-01,6.118500e-01,-1.491000e-01,-3.204100e-02,1.220000e+01
-1.016000e+00,6.876500e-01,-1.489900e-01,-3.204100e-02,1.137400e+01
-1.053400e+00,6.535100e-01,-1.490400e-01,-3.204100e-02,1.073600e+01
