0,0,-1.500000e-01,0,1.677600e+01
-4.092600e-02,2.177800e-02,-1.499500e-01,0,1.618700e+01
-7.312100e-02,6.584300e-02,-1.498600e-01,0,1.532600e+01
-1.091400e-02,1.349800e-01,-1.497200e-01,0,1.452500e+01
-4.911100e-03,1.367700e-01,-1.497100e-01,0,1.364600e+01
9.549300e-03,1.763900e-01,-1.496300e-01,0,1.304100e+01
5.456800e-01,6.638600e-01,-1.486100e-01,0,1.415000e+01
5.462200e-01,7.240300e-01,-1.484800e-01,0,1.583200e+01
5.525000e-01,7.425000e-01,-1.484400e-01,0,1.655600e+01
5.653200e-01,7.407600e-01,-1.484500e-01,0,1.644700e+01
5.776000e-01,7.339700e-01,-1.484600e-01,0,1.551400e+01
5.893300e-01,7.440700e-01,-1.484400e-01,0,1.361400e+01
-6.780000e-01,6.220100e-02,-1.498700e-01,0,1.242000e+01
-1.031300e+00,5.316400e-01,-1.488900e-01,0,1.223100e+01
-9.590300e-01,7.649000e-01,-1.484000e-01,0,1.272800e+01
-9.953100e-01,8.204400e-01,-1.482800e-01,0,1.264200e+01
-1.042800e+00,8.392500e-01,-1.482400e-01,0,1.185600e+01
-1.091400e+00,8.701300e-01,-1.481800e-01,0,1.056400e+01
0,0,-1.500000e-01,3.204100e-02,1.578300e+01
-4.092600e-02,2.385700e-02,-1.499500e-01,3.204100e-02,1.517300e+01
-7.312100e-02,6.629800e-02,-1.498600e-01,3.204100e-02,1.431300e+01
-1.091400e-02,1.351200e-01,-1.497200e-01,3.204100e-02,1.352300e+01
-4.911100e-03,1.366500e-01,-1.497100e-01,3.204100e-02,1.260600e+01
7.639500e-03,1.757100e-01,-1.496300e-01,3.204100e-02,1.201900e+01
5.456800e-01,6.633500e-01,-1.486100e-01,3.204100e-02,1.317100e+01
5.533200e-01,7.191700e-01,-1.484900e-01,3.204100e-02,1.486500e+01
5.598600e-01,7.417700e-01,-1.484500e-01,3.204100e-02,1.556900e+01
5.729600e-01,7.480800e-01,-1.484300e-01,3.204100e-02,1.541200e+01
5.934200e-01,7.508300e-01,-1.484300e-01,3.204100e-02,1.435400e+01
6.466300e-01,7.595400e-01,-1.484100e-01,3.204100e-02,1.242300e+01
-7.885000e-01,4.207500e-01,-1.491200e-01,3.204100e-02,1.114300e+01
-1.002700e+00,6.600900e-01,-1.486200e-01,3.204100e-02,1.163800e+01
-9.724000e-01,5.962900e-01,-1.487500e-01,3.204100e-02,1.221000e+01
-9.792200e-01,7.336800e-01,-1.484600e-01,3.204100e-02,1.190900e+01
-1.016000e+00,8.157100e-01,-1.482900e-01,3.204100e-02,1.164100e+01
-1.064100e+00,8.383300e-01,-1.482400e-01,3.204100e-02,1.091100e+01
0,0,-1.500000e-01,6.408200e-02,1.038000e+01
-1.609700e-02,3.409100e-03,-1.499900e-01,6.408200e-02,9.640500e+00
2.357300e-01,4.242100e-01,-1.491100e-01,6.408200e-02,1.056300e+01
6.035200e-01,7.436400e-01,-1.484400e-01,6.408200e-02,1.138000e+01
6.092500e-01,7.736700e-01,-1.483800e-01,6.408200e-02,1.130400e+01
5.074800e-01,6.207000e-01,-1.487000e-01,6.408200e-02,1.018600e+01
-8.403400e-01,8.874700e-01,-1.481400e-01,6.408200e-02,1.092400e+01
-8.840000e-01,8.680700e-01,-1.481800e-01,6.408200e-02,1.236700e+01
-9.186500e-01,8.523500e-01,-1.482100e-01,6.408200e-02,1.255100e+01
-9.331100e-01,8.736400e-01,-1.481700e-01,6.408200e-02,1.164100e+01
-9.044600e-01,9.726100e-01,-1.479600e-01,6.408200e-02,9.841800e+00
0,0,-1.500000e-01,9.612300e-02,9.903400e+00
3.437800e-02,5.941300e-03,-1.499900e-01,9.612300e-02,9.471100e+00
3.819700e-01,6.399500e-01,-1.486600e-01,9.612300e-02,1.007900e+01
4.510000e-01,7.082100e-01,-1.485200e-01,9.612300e-02,1.052800e+01
5.156600e-01,7.015000e-01,-1.485300e-01,9.612300e-02,1.044500e+01
5.497700e-01,6.022200e-01,-1.487400e-01,9.612300e-02,9.691200e+00
-8.212400e-01,8.826800e-01,-1.481500e-01,9.612300e-02,1.152400e+01
-8.741700e-01,8.889200e-01,-1.481400e-01,9.612300e-02,1.257300e+01
-8.984600e-01,8.786400e-01,-1.481600e-01,9.612300e-02,1.273700e+01
-9.227400e-01,8.595500e-01,-1.482000e-01,9.612300e-02,1.174300e+01
0,0,-1.500000e-01,1.281600e-01,9.394600e+00
6.220700e-01,8.117400e-01,-1.483000e-01,1.281600e-01,9.931500e+00
-7.735000e-01,2.579800e-01,-1.494600e-01,1.281600e-01,1.090100e+01
-8.447100e-01,8.669900e-01,-1.481800e-01,1.281600e-01,1.138900e+01
-8.984600e-01,9.280200e-01,-1.480600e-01,1.281600e-01,1.124200e+01
-9.331100e-01,9.053700e-01,-1.481000e-01,1.281600e-01,1.034500e+01
-2.701100e+00,2.152900e+00,-1.454900e-01,-1.057400e+00,1.087500e+01
-2.783000e+00,2.104000e+00,-1.455900e-01,-1.057400e+00,1.132400e+01
-2.838300e+00,2.068100e+00,-1.456700e-01,-1.057400e+00,1.108800e+01
-2.838600e+00,2.082100e+00,-1.456400e-01,-1.057400e+00,1.014100e+01
-1.390400e+00,3.335400e+00,-1.430100e-01,-1.057400e+00,1.035800e+01
-1.432400e+00,3.369900e+00,-1.429400e-01,-1.057400e+00,1.064800e+01
-1.503900e+00,3.376300e+00,-1.429300e-01,-1.057400e+00,1.014800e+01
-2.728100e+00,2.122000e+00,-1.455600e-01,-1.025300e+00,1.094700e+01
-2.783000e+00,2.091500e+00,-1.456200e-01,-1.025300e+00,1.128600e+01
-2.810800e+00,2.035500e+00,-1.457400e-01,-1.025300e+00,1.077600e+01
-2.717500e-01,5.789900e+00,-1.378700e-01,-1.025300e+00,1.017300e+01
-1.781100e+00,2.835400e+00,-1.440600e-01,-9.612300e-01,1.056700e+01
-1.826100e+00,2.822300e+00,-1.440900e-01,-9.612300e-01,1.037900e+01
-2.810200e+00,2.071600e+00,-1.456600e-01,-9.612300e-01,1.078600e+01
-2.865900e+00,2.055700e+00,-1.456900e-01,-9.612300e-01,1.074300e+01
-1.333600e+00,3.378300e+00,-1.429200e-01,-9.612300e-01,1.036400e+01
-1.375100e+00,3.399000e+00,-1.428800e-01,-9.612300e-01,1.055900e+01
-2.892100e+00,1.953200e+00,-1.459100e-01,-9.291900e-01,1.059200e+01
-5.500400e-01,4.998400e+00,-1.395300e-01,-9.291900e-01,9.886900e+00
-3.170400e-01,5.760400e+00,-1.379400e-01,-9.291900e-01,1.010100e+01
-3.981300e+00,6.890200e+00,-1.355700e-01,-9.291900e-01,1.038400e+01
-8.403400e-01,9.865700e-01,-1.479300e-01,-8.971500e-01,9.817800e+00
5.042100e-01,3.028300e+00,-1.436600e-01,-8.971500e-01,1.049800e+01
4.370900e-01,3.076800e+00,-1.435600e-01,-8.971500e-01,1.024000e+01
-2.782100e+00,2.052400e+00,-1.457000e-01,-8.971500e-01,1.022500e+01
-2.919400e+00,1.915000e+00,-1.459900e-01,-8.971500e-01,1.100900e+01
-3.141500e+00,1.594500e+00,-1.466600e-01,-8.971500e-01,1.050200e+01
-4.501800e-01,5.727200e+00,-1.380000e-01,-8.971500e-01,1.088700e+01
-4.529100e-01,5.777800e+00,-1.379000e-01,-8.971500e-01,1.119200e+01
-5.012000e-01,5.810300e+00,-1.378300e-01,-8.971500e-01,1.038100e+01
-1.844400e-01,5.869200e+00,-1.377100e-01,-8.971500e-01,1.021200e+01
-2.319100e-01,5.845600e+00,-1.377600e-01,-8.971500e-01,1.024500e+01
-4.167900e+00,6.783300e+00,-1.357900e-01,-8.971500e-01,1.031200e+01
-2.647100e+00,7.617200e+00,-1.340500e-01,-8.971500e-01,1.017900e+01
-7.980500e-01,1.011500e+00,-1.478800e-01,-8.651100e-01,1.007500e+01
-8.294300e-01,1.015600e+00,-1.478700e-01,-8.651100e-01,1.083500e+01
-8.501600e-01,1.044200e+00,-1.478100e-01,-8.651100e-01,1.079600e+01
-8.594400e-01,1.116600e+00,-1.476600e-01,-8.651100e-01,9.977700e+00
5.522200e-01,3.021100e+00,-1.436700e-01,-8.651100e-01,1.096000e+01
4.856500e-01,3.066400e+00,-1.435800e-01,-8.651100e-01,1.065200e+01
-1.623900e+00,2.932000e+00,-1.438600e-01,-8.651100e-01,1.080800e+01
-2.755100e+00,2.087800e+00,-1.456300e-01,-8.651100e-01,1.039000e+01
-2.837500e+00,2.035600e+00,-1.457400e-01,-8.651100e-01,1.108700e+01
-2.921000e+00,1.974400e+00,-1.458600e-01,-8.651100e-01,1.091700e+01
-2.003700e+00,4.558800e+00,-1.404500e-01,-8.651100e-01,1.007100e+01
-1.405700e+00,5.435300e+00,-1.386200e-01,-8.651100e-01,1.004500e+01
-1.370200e+00,5.489100e+00,-1.385000e-01,-8.651100e-01,1.033200e+01
-4.952000e-01,5.737600e+00,-1.379800e-01,-8.651100e-01,1.106600e+01
-4.529100e-01,5.777500e+00,-1.379000e-01,-8.651100e-01,1.137400e+01
-5.012000e-01,5.798800e+00,-1.378600e-01,-8.651100e-01,1.066100e+01
-2.761100e+00,7.542800e+00,-1.342000e-01,-8.651100e-01,1.024000e+01
-2.773100e+00,7.574600e+00,-1.341400e-01,-8.651100e-01,1.113200e+01
-2.848400e+00,7.579600e+00,-1.341300e-01,-8.651100e-01,1.096500e+01
-8.054200e-01,1.106800e+00,-1.476800e-01,-8.330700e-01,9.759900e+00
-8.365200e-01,1.137200e+00,-1.476200e-01,-8.330700e-01,9.891800e+00
-1.060800e+00,2.611200e+00,-1.445300e-01,-8.330700e-01,1.037900e+01
-1.866200e+00,2.742600e+00,-1.442600e-01,-8.330700e-01,1.075700e+01
-2.728100e+00,2.123700e+00,-1.455500e-01,-8.330700e-01,1.058400e+01
-2.783000e+00,2.109800e+00,-1.455800e-01,-8.330700e-01,1.113400e+01
-2.810800e+00,2.130100e+00,-1.455400e-01,-8.330700e-01,1.103600e+01
-2.671600e+00,2.321300e+00,-1.451400e-01,-8.330700e-01,1.040700e+01
-1.743400e+00,4.595900e+00,-1.403700e-01,-8.330700e-01,1.023900e+01
-1.872800e+00,4.602700e+00,-1.403600e-01,-8.330700e-01,1.088700e+01
-1.964400e+00,4.607600e+00,-1.403500e-01,-8.330700e-01,1.074700e+01
-2.136300e+00,4.576700e+00,-1.404100e-01,-8.330700e-01,9.905100e+00
-1.326000e+00,5.465300e+00,-1.385500e-01,-8.330700e-01,9.932300e+00
-4.474500e-01,5.688200e+00,-1.380900e-01,-8.330700e-01,1.004400e+01
-4.051600e-01,5.748000e+00,-1.379600e-01,-8.330700e-01,1.097400e+01
-4.529100e-01,5.777100e+00,-1.379000e-01,-8.330700e-01,1.115300e+01
-4.556400e-01,5.794100e+00,-1.378600e-01,-8.330700e-01,1.037000e+01
-4.883800e-01,6.228900e+00,-1.369500e-01,-8.330700e-01,9.874200e+00
-6.384400e-01,6.228400e+00,-1.369600e-01,-8.330700e-01,1.031100e+01
-8.395200e-01,6.205200e+00,-1.370000e-01,-8.330700e-01,1.000900e+01
-2.823900e+00,7.519400e+00,-1.342500e-01,-8.330700e-01,1.017400e+01
-2.836200e+00,7.548700e+00,-1.341900e-01,-8.330700e-01,1.120100e+01
-2.848400e+00,7.573800e+00,-1.341400e-01,-8.330700e-01,1.112200e+01
-3.051400e+00,7.479500e+00,-1.343300e-01,-8.330700e-01,1.004200e+01
-1.094200e+01,4.276000e+00,-1.410400e-01,-8.330700e-01,9.977900e+00
-1.079000e+01,4.783700e+00,-1.399800e-01,-8.330700e-01,9.907800e+00
-8.185100e-01,1.059400e+00,-1.477800e-01,-8.010300e-01,1.096000e+01
-8.501600e-01,1.072000e+00,-1.477500e-01,-8.010300e-01,1.120400e+01
-8.938200e-01,1.090400e+00,-1.477200e-01,-8.010300e-01,1.069800e+01
8.021400e-02,1.685000e+00,-1.464700e-01,-8.010300e-01,1.011400e+01
6.821000e-02,1.712100e+00,-1.464100e-01,-8.010300e-01,1.018700e+01
-7.508500e-01,2.095900e+00,-1.456100e-01,-8.010300e-01,1.066000e+01
-6.916400e-01,2.152100e+00,-1.454900e-01,-8.010300e-01,1.114000e+01
-5.762300e-01,2.231100e+00,-1.453300e-01,-8.010300e-01,1.067800e+01
-1.769600e+00,2.764900e+00,-1.442100e-01,-8.010300e-01,1.102700e+01
-1.762500e+00,2.810000e+00,-1.441100e-01,-8.010300e-01,1.195300e+01
-1.807300e+00,2.823500e+00,-1.440900e-01,-8.010300e-01,1.152700e+01
-2.755100e+00,2.087800e+00,-1.456300e-01,-8.010300e-01,1.053400e+01
-2.837500e+00,2.034900e+00,-1.457400e-01,-8.010300e-01,1.110500e+01
-2.838300e+00,2.094100e+00,-1.456100e-01,-8.010300e-01,1.092100e+01
-2.616000e+00,2.414600e+00,-1.449400e-01,-8.010300e-01,1.052900e+01
-2.444900e+00,2.638500e+00,-1.444700e-01,-8.010300e-01,1.069500e+01
-2.411900e+00,2.711600e+00,-1.443200e-01,-8.010300e-01,1.035000e+01
-3.132200e-01,5.708600e+00,-1.380400e-01,-8.010300e-01,1.016200e+01
-3.601500e-01,5.742600e+00,-1.379700e-01,-8.010300e-01,1.107200e+01
-4.529100e-01,5.779300e+00,-1.379000e-01,-8.010300e-01,1.103600e+01
-2.710100e+00,7.598400e+00,-1.340900e-01,-8.010300e-01,1.057000e+01
-2.721800e+00,7.630500e+00,-1.340200e-01,-8.010300e-01,1.038700e+01
-7.767700e-01,1.094700e+00,-1.477100e-01,-7.689800e-01,1.027900e+01
-8.185100e-01,1.079300e+00,-1.477400e-01,-7.689800e-01,1.130100e+01
-8.501600e-01,1.095700e+00,-1.477100e-01,-7.689800e-01,1.139800e+01
-8.823600e-01,1.138800e+00,-1.476100e-01,-7.689800e-01,1.039500e+01
2.673800e-02,1.623500e+00,-1.466000e-01,-7.689800e-01,9.945200e+00
4.092600e-02,1.651100e+00,-1.465400e-01,-7.689800e-01,1.014700e+01
-9.625700e-01,1.970400e+00,-1.458700e-01,-7.689800e-01,1.087000e+01
-1.012800e+00,1.982000e+00,-1.458500e-01,-7.689800e-01,1.215100e+01
-1.064100e+00,1.984600e+00,-1.458400e-01,-7.689800e-01,1.248600e+01
-1.116500e+00,1.987300e+00,-1.458400e-01,-7.689800e-01,1.193800e+01
-1.188200e+00,2.002600e+00,-1.458100e-01,-7.689800e-01,1.038900e+01
-1.744000e+00,2.779400e+00,-1.441800e-01,-7.689800e-01,1.102900e+01
-1.736600e+00,2.823800e+00,-1.440900e-01,-7.689800e-01,1.211300e+01
-1.781100e+00,2.838100e+00,-1.440600e-01,-7.689800e-01,1.202200e+01
-1.826100e+00,2.852800e+00,-1.440300e-01,-7.689800e-01,1.065500e+01
-2.864800e+00,1.994900e+00,-1.458200e-01,-7.689800e-01,1.056500e+01
-2.501100e+00,2.579700e+00,-1.446000e-01,-7.689800e-01,1.055200e+01
-2.525400e+00,2.605200e+00,-1.445400e-01,-7.689800e-01,1.051100e+01
-3.601500e-01,5.606200e+00,-1.382600e-01,-7.689800e-01,1.009800e+01
-4.529100e-01,5.708900e+00,-1.380400e-01,-7.689800e-01,1.030900e+01
-2.088800e+00,7.818400e+00,-1.336300e-01,-7.689800e-01,1.027700e+01
-2.161400e+00,7.812400e+00,-1.336400e-01,-7.689800e-01,1.013400e+01
-4.179100e+00,9.186500e+00,-1.307600e-01,-7.689800e-01,9.924300e+00
-7.966900e-01,1.110200e+00,-1.476700e-01,-7.369400e-01,9.919400e+00
-8.725400e-01,1.069300e+00,-1.477600e-01,-7.369400e-01,1.027800e+01
-9.797600e-01,1.963300e+00,-1.458900e-01,-7.369400e-01,1.129600e+01
-1.047700e+00,1.963200e+00,-1.458900e-01,-7.369400e-01,1.267200e+01
-1.081800e+00,1.976200e+00,-1.458600e-01,-7.369400e-01,1.298200e+01
-1.134500e+00,1.980800e+00,-1.458500e-01,-7.369400e-01,1.230200e+01
-1.206500e+00,1.993700e+00,-1.458200e-01,-7.369400e-01,1.050900e+01
-1.684800e+00,2.858100e+00,-1.440100e-01,-7.369400e-01,1.146700e+01
-1.754900e+00,2.855500e+00,-1.440200e-01,-7.369400e-01,1.167900e+01
-1.826100e+00,2.850800e+00,-1.440300e-01,-7.369400e-01,1.072900e+01
-2.846800e+00,2.628000e+00,-1.445000e-01,-7.369400e-01,1.050700e+01
-2.841900e+00,2.685900e+00,-1.443700e-01,-7.369400e-01,1.080000e+01
-2.867300e+00,2.686200e+00,-1.443700e-01,-7.369400e-01,1.023800e+01
-2.278700e+00,7.775100e+00,-1.337200e-01,-7.369400e-01,1.026200e+01
-7.966900e-01,1.092700e+00,-1.477100e-01,-7.049000e-01,9.915900e+00
-8.613500e-01,1.027500e+00,-1.478500e-01,-7.049000e-01,1.017300e+01
1.637000e-01,1.727300e+00,-1.463800e-01,-7.049000e-01,1.019600e+01
-9.625700e-01,1.974600e+00,-1.458600e-01,-7.049000e-01,1.028500e+01
-1.012800e+00,1.978200e+00,-1.458600e-01,-7.049000e-01,1.172700e+01
-1.064100e+00,1.982200e+00,-1.458500e-01,-7.049000e-01,1.205100e+01
-1.116500e+00,1.991500e+00,-1.458300e-01,-7.049000e-01,1.136300e+01
-2.877100e+00,2.567200e+00,-1.446200e-01,-7.049000e-01,1.016600e+01
-2.872400e+00,2.623500e+00,-1.445100e-01,-7.049000e-01,1.052700e+01
-2.898100e+00,2.573500e+00,-1.446100e-01,-7.049000e-01,1.000500e+01
-5.825100e-01,9.099200e-01,-1.480900e-01,-6.728600e-01,1.024200e+01
-5.991500e-01,9.842700e-01,-1.479400e-01,-6.728600e-01,1.065000e+01
-6.258900e-01,1.027700e+00,-1.478500e-01,-6.728600e-01,1.018100e+01
1.336900e-01,1.682300e+00,-1.464800e-01,-6.728600e-01,1.009500e+01
1.364200e-01,1.724800e+00,-1.463900e-01,-6.728600e-01,1.060100e+01
1.530600e-01,1.763500e+00,-1.463100e-01,-6.728600e-01,1.029900e+01
-1.762500e+00,2.809300e+00,-1.441200e-01,-6.728600e-01,1.029200e+01
-5.538600e-01,9.322600e-01,-1.480500e-01,-6.408200e-01,1.006700e+01
-5.893300e-01,9.827700e-01,-1.479400e-01,-6.408200e-01,1.064200e+01
-6.258900e-01,1.014900e+00,-1.478700e-01,-6.408200e-01,1.016300e+01
-1.524100e+00,1.263200e+00,-1.473500e-01,-6.087800e-01,1.009300e+01
-1.503300e+00,1.355900e+00,-1.471600e-01,-6.087800e-01,9.946900e+00
-4.201700e-02,6.838400e-01,-1.485700e-01,-5.767400e-01,9.347800e+00
6.275300e-03,6.980900e-01,-1.485400e-01,-5.767400e-01,1.099900e+01
1.964400e-02,7.264700e-01,-1.484800e-01,-5.767400e-01,1.142700e+01
6.821000e-03,7.617600e-01,-1.484000e-01,-5.767400e-01,1.089500e+01
-5.675000e-02,7.487900e-01,-1.484300e-01,-5.767400e-01,1.021600e+01
-5.893300e-02,6.134000e-01,-1.487200e-01,-5.767400e-01,9.810900e+00
-1.539600e+00,1.182100e+00,-1.475200e-01,-5.767400e-01,9.995500e+00
-2.401000e-02,6.524100e-01,-1.486300e-01,-5.447000e-01,1.057400e+01
0,6.859200e-01,-1.485600e-01,-5.447000e-01,1.211500e+01
1.309600e-02,7.239300e-01,-1.484800e-01,-5.447000e-01,1.243900e+01
2.046300e-02,7.746100e-01,-1.483800e-01,-5.447000e-01,1.165200e+01
-2.128100e-02,8.508700e-01,-1.482200e-01,-5.447000e-01,9.843700e+00
-6.002400e-03,6.667200e-01,-1.486000e-01,-5.126600e-01,1.033300e+01
0,6.915600e-01,-1.485500e-01,-5.126600e-01,1.172900e+01
6.548100e-03,7.336500e-01,-1.484600e-01,-5.126600e-01,1.194600e+01
2.046300e-02,8.003800e-01,-1.483200e-01,-5.126600e-01,1.103600e+01
-2.184900e+00,5.964900e+00,-1.375100e-01,-5.126600e-01,1.034400e+01
-3.890700e-01,6.959300e-01,-1.485400e-01,-4.806200e-01,9.790700e+00
-1.309600e-02,7.683700e-01,-1.483900e-01,-4.806200e-01,9.717200e+00
-1.975300e+00,5.997700e+00,-1.374400e-01,-4.806200e-01,1.038200e+01
-1.986300e+00,6.037400e+00,-1.373600e-01,-4.806200e-01,1.128900e+01
-1.997200e+00,6.070300e+00,-1.372900e-01,-4.806200e-01,1.098200e+01
1.435100e-01,9.167000e+00,-1.308000e-01,-4.806200e-01,1.039800e+01
2.160900e-01,9.189600e+00,-1.307500e-01,-4.806200e-01,1.041400e+01
-1.876600e+00,6.035500e+00,-1.373600e-01,-4.485700e-01,1.080100e+01
-1.936600e+00,6.053800e+00,-1.373200e-01,-4.485700e-01,1.155100e+01
-1.947200e+00,6.085200e+00,-1.372600e-01,-4.485700e-01,1.142300e+01
-2.008100e+00,6.100200e+00,-1.372200e-01,-4.485700e-01,1.085200e+01
-2.220900e+00,6.059600e+00,-1.373100e-01,-4.485700e-01,1.020500e+01
0,9.183400e+00,-1.307700e-01,-4.485700e-01,1.028500e+01
-7.202900e-02,9.212000e+00,-1.307100e-01,-4.485700e-01,1.043700e+01
0,0,-1.500000e-01,-1.602100e-01,9.619400e+00
2.182700e-03,3.433200e-02,-1.499300e-01,-1.602100e-01,9.212500e+00
3.781500e-01,5.370800e-01,-1.488800e-01,-1.602100e-01,9.487400e+00
4.141700e-01,5.750300e-01,-1.488000e-01,-1.602100e-01,1.041800e+01
4.321800e-01,6.111600e-01,-1.487200e-01,-1.602100e-01,1.033000e+01
3.476000e-01,4.486600e-01,-1.490600e-01,-1.602100e-01,9.851700e+00
4.272600e-01,6.392000e-01,-1.486600e-01,-1.602100e-01,1.063900e+01
4.736500e-01,6.653600e-01,-1.486100e-01,-1.602100e-01,1.140100e+01
5.063900e-01,7.040300e-01,-1.485300e-01,-1.602100e-01,1.158700e+01
5.484000e-01,7.613900e-01,-1.484100e-01,-1.602100e-01,1.125500e+01
5.836000e-01,8.086800e-01,-1.483100e-01,-1.602100e-01,1.070900e+01
6.111600e-01,8.205400e-01,-1.482800e-01,-1.602100e-01,1.084900e+01
6.212500e-01,8.331600e-01,-1.482600e-01,-1.602100e-01,1.121300e+01
6.215300e-01,8.579900e-01,-1.482000e-01,-1.602100e-01,1.068700e+01
0,0,-1.500000e-01,-1.281600e-01,9.287200e+00
4.021600e-01,5.525100e-01,-1.488400e-01,-1.281600e-01,1.001600e+01
4.329900e-01,5.973700e-01,-1.487500e-01,-1.281600e-01,1.075500e+01
4.518200e-01,6.379000e-01,-1.486600e-01,-1.281600e-01,1.057500e+01
5.604100e-01,6.521200e-01,-1.486300e-01,-1.281600e-01,9.912400e+00
4.272600e-01,6.704900e-01,-1.486000e-01,-1.281600e-01,1.073800e+01
4.736500e-01,6.415300e-01,-1.486600e-01,-1.281600e-01,1.105700e+01
5.459500e-01,4.588400e-01,-1.490400e-01,-1.281600e-01,1.071500e+01
6.138900e-01,8.382800e-01,-1.482400e-01,-1.281600e-01,1.073400e+01
6.343500e-01,8.533900e-01,-1.482100e-01,-1.281600e-01,1.033300e+01
6.198900e-01,8.558500e-01,-1.482100e-01,-1.281600e-01,1.055100e+01
6.122500e-01,8.522400e-01,-1.482200e-01,-1.281600e-01,1.094500e+01
6.029700e-01,8.561000e-01,-1.482100e-01,-1.281600e-01,1.035700e+01
0,0,-1.500000e-01,-9.612300e-02,1.011200e+01
0,3.406000e-02,-1.499300e-01,-9.612300e-02,9.578500e+00
4.455400e-01,6.403000e-01,-1.486600e-01,-9.612300e-02,9.730600e+00
5.746000e-01,7.022800e-01,-1.485300e-01,-9.612300e-02,1.054200e+01
5.819600e-01,7.067300e-01,-1.485200e-01,-9.612300e-02,1.200400e+01
5.882400e-01,6.080700e-01,-1.487300e-01,-9.612300e-02,1.240200e+01
4.351800e-01,8.086400e-01,-1.483100e-01,-9.612300e-02,1.145100e+01
4.420000e-01,8.477500e-01,-1.482200e-01,-9.612300e-02,1.140700e+01
5.074800e-01,8.758200e-01,-1.481700e-01,-9.612300e-02,1.050400e+01
0,0,-1.500000e-01,-6.408200e-02,1.056900e+01
-5.456800e-04,3.420700e-02,-1.499300e-01,-6.408200e-02,9.941400e+00
2.592000e-01,1.402900e-01,-1.497100e-01,-6.408200e-02,1.000200e+01
5.887800e-01,6.849600e-01,-1.485700e-01,-6.408200e-02,1.198300e+01
6.114300e-01,7.152200e-01,-1.485000e-01,-6.408200e-02,1.312000e+01
6.722700e-01,6.940000e-01,-1.485500e-01,-6.408200e-02,1.336900e+01
3.797900e-01,6.669500e-01,-1.486000e-01,-6.408200e-02,1.367400e+01
4.829200e-01,7.947200e-01,-1.483400e-01,-6.408200e-02,1.323700e+01
5.666900e-01,8.627100e-01,-1.481900e-01,-6.408200e-02,1.202000e+01
6.122500e-01,8.876600e-01,-1.481400e-01,-6.408200e-02,9.928300e+00
0,0,-1.500000e-01,-3.204100e-02,1.573700e+01
-4.092600e-02,1.640800e-02,-1.499700e-01,-3.204100e-02,1.516800e+01
-7.312100e-02,6.425200e-02,-1.498700e-01,-3.204100e-02,1.430400e+01
-1.091400e-02,1.344800e-01,-1.497200e-01,-3.204100e-02,1.349700e+01
-4.911100e-03,1.384800e-01,-1.497100e-01,-3.204100e-02,1.263200e+01
9.549300e-03,1.822200e-01,-1.496200e-01,-3.204100e-02,1.205200e+01
5.456800e-01,6.668700e-01,-1.486000e-01,-3.204100e-02,1.301200e+01
5.462200e-01,7.201900e-01,-1.484900e-01,-3.204100e-02,1.462100e+01
5.377600e-01,7.292200e-01,-1.484700e-01,-3.204100e-02,1.537100e+01
5.347600e-01,7.217900e-01,-1.484900e-01,-3.204100e-02,1.543900e+01
5.222100e-01,7.300500e-01,-1.484700e-01,-3.204100e-02,1.492400e+01
5.238500e-01,7.644400e-01,-1.484000e-01,-3.204100e-02,1.394700e+01
5.497700e-01,8.513800e-01,-1.482200e-01,-3.204100e-02,1.224100e+01
5.762300e-01,7.993600e-01,-1.483300e-01,-3.204100e-02,1.085400e+01
-8.152400e-01,6.385100e-01,-1.486600e-01,-3.204100e-02,1.224000e+01
-9.287400e-01,7.632300e-01,-1.484000e-01,-3.204100e-02,1.239400e+01
-9.849500e-01,7.982700e-01,-1.483300e-01,-3.204100e-02,1.173100e+01
-1.042800e+00,8.086400e-01,-1.483100e-01,-3.204100e-02,1.083600e+01
