0,0,-1.500000e-01,0,1.683700e+01
-4.092600e-02,2.289400e-02,-1.499800e-01,0,1.618300e+01
-7.312100e-02,6.539600e-02,-1.499500e-01,0,1.532700e+01
-1.091400e-02,1.346600e-01,-1.498900e-01,0,1.452300e+01
-4.911100e-03,1.360800e-01,-1.498900e-01,0,1.364200e+01
9.549300e-03,1.771100e-01,-1.498500e-01,0,1.302400e+01
5.525000e-01,6.606700e-01,-1.494500e-01,0,1.423200e+01
5.533200e-01,7.188800e-01,-1.494000e-01,0,1.590200e+01
5.672300e-01,7.385300e-01,-1.493800e-01,0,1.659600e+01
5.882400e-01,7.497000e-01,-1.493700e-01,0,1.637000e+01
6.171600e-01,7.560400e-01,-1.493700e-01,0,1.501600e+01
5.484000e-01,7.027100e-01,-1.494100e-01,0,1.232700e+01
6.428100e-01,8.106100e-01,-1.493200e-01,0,1.210800e+01
-7.328400e-01,6.717000e-01,-1.494400e-01,0,1.191400e+01
-9.931300e-01,5.946500e-01,-1.495000e-01,0,1.303800e+01
-9.527500e-01,5.496500e-01,-1.495400e-01,0,1.354200e+01
-9.691200e-01,3.110800e-01,-1.497400e-01,0,1.267200e+01
-1.026400e+00,7.822800e-01,-1.493400e-01,0,1.219500e+01
-1.032100e+00,8.099400e-01,-1.493200e-01,0,1.180200e+01
-1.047700e+00,8.787700e-01,-1.492600e-01,0,1.028000e+01
0,0,-1.500000e-01,3.204100e-02,1.582700e+01
-4.092600e-02,2.704900e-02,-1.499800e-01,3.204100e-02,1.517000e+01
-7.312100e-02,6.687700e-02,-1.499400e-01,3.204100e-02,1.431200e+01
-1.227800e-02,1.344800e-01,-1.498900e-01,3.204100e-02,1.350000e+01
-4.911100e-03,1.376700e-01,-1.498800e-01,3.204100e-02,1.262200e+01
9.549300e-03,1.817800e-01,-1.498500e-01,3.204100e-02,1.201100e+01
5.456800e-01,6.670500e-01,-1.494400e-01,3.204100e-02,1.319500e+01
5.533200e-01,7.189200e-01,-1.494000e-01,3.204100e-02,1.488400e+01
5.598600e-01,7.434100e-01,-1.493800e-01,3.204100e-02,1.559600e+01
5.806000e-01,7.537900e-01,-1.493700e-01,3.204100e-02,1.538600e+01
6.092500e-01,7.578700e-01,-1.493700e-01,3.204100e-02,1.409500e+01
5.647800e-01,7.873000e-01,-1.493400e-01,3.204100e-02,1.180600e+01
6.258900e-01,8.428800e-01,-1.492900e-01,3.204100e-02,1.125600e+01
-9.091000e-01,7.613100e-01,-1.493600e-01,3.204100e-02,1.086600e+01
-9.262900e-01,7.170800e-01,-1.494000e-01,3.204100e-02,1.284200e+01
-9.331100e-01,7.043600e-01,-1.494100e-01,3.204100e-02,1.320800e+01
-9.590300e-01,6.291300e-01,-1.494700e-01,3.204100e-02,1.213300e+01
-1.078300e+00,7.652100e-01,-1.493600e-01,3.204100e-02,1.011000e+01
-1.000200e+00,8.913500e-01,-1.492500e-01,3.204100e-02,1.058300e+01
0,0,-1.500000e-01,6.408200e-02,9.731800e+00
-1.500600e-02,5.734900e-03,-1.500000e-01,6.408200e-02,9.671200e+00
-2.455500e-02,5.891000e-02,-1.499500e-01,6.408200e-02,9.260200e+00
5.230300e-01,6.858700e-01,-1.494300e-01,6.408200e-02,9.568600e+00
5.576800e-01,7.166700e-01,-1.494000e-01,6.408200e-02,9.624400e+00
-8.348900e-01,8.135700e-01,-1.493200e-01,6.408200e-02,1.105200e+01
-8.689900e-01,7.932500e-01,-1.493400e-01,6.408200e-02,1.239900e+01
-9.036400e-01,7.700400e-01,-1.493500e-01,6.408200e-02,1.274900e+01
-9.388400e-01,7.471400e-01,-1.493700e-01,6.408200e-02,1.217100e+01
-1.005700e+00,6.489400e-01,-1.494600e-01,6.408200e-02,1.043000e+01
0,0,-1.500000e-01,9.612300e-02,9.423800e+00
4.905600e-01,5.005700e-01,-1.495800e-01,9.612300e-02,9.805500e+00
5.647800e-01,6.738500e-01,-1.494400e-01,9.612300e-02,1.017600e+01
6.005200e-01,7.638000e-01,-1.493600e-01,9.612300e-02,9.826100e+00
-8.348900e-01,8.365700e-01,-1.493000e-01,9.612300e-02,1.025300e+01
-8.594400e-01,8.035900e-01,-1.493300e-01,9.612300e-02,1.149000e+01
-8.840000e-01,7.590100e-01,-1.493600e-01,9.612300e-02,1.177100e+01
-8.782700e-01,5.614500e-01,-1.495300e-01,9.612300e-02,1.104500e+01
-8.086900e-01,3.211900e-01,-1.497300e-01,9.612300e-02,9.863700e+00
6.725500e-01,7.350600e-01,-1.493800e-01,1.281600e-01,9.570100e+00
6.302600e-01,7.518600e-01,-1.493700e-01,1.281600e-01,1.009400e+01
6.343500e-01,7.603000e-01,-1.493600e-01,1.281600e-01,9.824700e+00
-7.735000e-01,5.786700e-01,-1.495200e-01,1.281600e-01,1.007500e+01
0,0,-1.500000e-01,1.602100e-01,9.542300e+00
-3.205300e+00,5.196300e+00,-1.456500e-01,-1.121400e+00,1.050000e+01
-3.174500e+00,5.351200e+00,-1.455200e-01,-1.121400e+00,1.097800e+01
-3.241300e+00,5.376500e+00,-1.455000e-01,-1.121400e+00,1.047700e+01
-3.253900e+00,5.262000e+00,-1.455900e-01,-1.089400e+00,1.019600e+01
-3.125600e+00,5.413200e+00,-1.454700e-01,-1.089400e+00,1.052200e+01
-3.125600e+00,5.411100e+00,-1.454700e-01,-9.932700e-01,1.033600e+01
-3.481400e-01,1.940100e+00,-1.483700e-01,-9.291900e-01,1.074100e+01
-4.024400e-01,1.993000e+00,-1.483300e-01,-9.291900e-01,1.136100e+01
-4.256300e-01,2.031000e+00,-1.483000e-01,-9.291900e-01,1.101600e+01
-1.243100e+00,1.973200e+00,-1.483500e-01,-9.291900e-01,1.103000e+01
-1.261600e+00,2.002600e+00,-1.483200e-01,-9.291900e-01,1.123000e+01
-1.280200e+00,2.027500e+00,-1.483000e-01,-9.291900e-01,1.055900e+01
3.328600e-02,4.251100e+00,-1.464400e-01,-9.291900e-01,1.011600e+01
6.711800e-02,4.289200e+00,-1.464100e-01,-9.291900e-01,1.109900e+01
6.766400e-02,4.327400e+00,-1.463700e-01,-9.291900e-01,1.096400e+01
-3.593800e+00,4.834900e+00,1.533500e+00,-9.291900e-01,1.013100e+01
-3.516300e+00,5.143200e+00,-1.456900e-01,-9.291900e-01,1.055200e+01
-3.863400e-01,1.980500e+00,-1.483400e-01,-8.971500e-01,1.074600e+01
-3.928900e-01,2.028100e+00,-1.483000e-01,-8.971500e-01,1.052900e+01
-1.188200e+00,2.011200e+00,-1.483200e-01,-8.971500e-01,1.130900e+01
-1.243100e+00,2.017600e+00,-1.483100e-01,-8.971500e-01,1.156600e+01
-1.261300e+00,2.044500e+00,-1.482900e-01,-8.971500e-01,1.080400e+01
-7.770400e-01,3.006300e+00,-1.474800e-01,-8.971500e-01,1.011700e+01
-7.366600e-01,3.038200e+00,-1.474500e-01,-8.971500e-01,9.843100e+00
3.328600e-02,4.237700e+00,-1.464500e-01,-8.971500e-01,1.072400e+01
3.355900e-02,4.291000e+00,-1.464100e-01,-8.971500e-01,1.125400e+01
3.383200e-02,4.329400e+00,-1.463700e-01,-8.971500e-01,1.090600e+01
-3.516300e+00,5.114000e+00,-1.457200e-01,-8.971500e-01,1.044100e+01
-4.583700e-01,1.882000e+00,-1.484200e-01,-8.651100e-01,9.889000e+00
-5.443100e-01,1.892500e+00,-1.484100e-01,-8.651100e-01,1.076900e+01
-5.538600e-01,1.928000e+00,-1.483800e-01,-8.651100e-01,1.071700e+01
-5.473100e-01,1.955900e+00,-1.483600e-01,-8.651100e-01,1.000200e+01
-1.151700e+00,2.035600e+00,-1.482900e-01,-8.651100e-01,1.032100e+01
-1.187400e+00,2.055100e+00,-1.482800e-01,-8.651100e-01,1.066600e+01
-8.741700e-01,2.948900e+00,-1.475300e-01,-8.651100e-01,1.019700e+01
-7.366600e-01,3.047600e+00,-1.474500e-01,-8.651100e-01,1.005300e+01
3.355900e-02,4.294800e+00,-1.464000e-01,-8.651100e-01,1.036400e+01
3.383200e-02,4.321900e+00,-1.463800e-01,-8.651100e-01,1.085400e+01
6.821000e-02,4.355900e+00,-1.463500e-01,-8.651100e-01,1.023900e+01
-5.500400e-01,1.853300e+00,-1.484500e-01,-8.330700e-01,1.040300e+01
-5.754200e-01,1.858800e+00,-1.484400e-01,-8.330700e-01,1.099900e+01
-6.171600e-01,1.836400e+00,-1.484600e-01,-8.330700e-01,1.034600e+01
-2.401000e-01,3.035700e+00,-1.474600e-01,-8.330700e-01,1.010300e+01
1.342400e-01,4.275400e+00,-1.464200e-01,-8.330700e-01,1.120900e+01
1.015000e-01,4.318000e+00,-1.463800e-01,-8.330700e-01,1.145500e+01
1.364200e-01,4.358900e+00,-1.463500e-01,-8.330700e-01,1.061700e+01
-1.021500e+00,4.900000e+00,-1.458900e-01,-8.330700e-01,1.019100e+01
-3.369800e+00,5.163900e+00,-1.456700e-01,-8.330700e-01,1.009100e+01
-5.598600e-01,1.860900e+00,-1.484400e-01,-8.010300e-01,1.058900e+01
-6.013400e-01,1.844900e+00,-1.484500e-01,-8.010300e-01,1.030300e+01
-2.492400e+00,1.735800e+00,-1.485500e-01,-8.010300e-01,1.030000e+01
-2.593100e+00,1.649400e+00,-1.486200e-01,-8.010300e-01,1.035500e+01
6.711800e-02,4.197300e+00,-1.464800e-01,-8.010300e-01,1.044500e+01
3.383200e-02,4.254400e+00,-1.464400e-01,-8.010300e-01,1.045800e+01
-2.704400e+00,5.542600e+00,-1.453600e-01,-8.010300e-01,1.007200e+01
-2.816800e+00,5.540600e+00,-1.453600e-01,-8.010300e-01,9.907900e+00
-2.652000e+00,7.045800e+00,-1.441000e-01,-8.010300e-01,1.023600e+01
-5.347600e-01,1.832100e+00,-1.484700e-01,-7.689800e-01,1.019400e+01
-6.065200e-01,1.853500e+00,-1.484500e-01,-7.689800e-01,1.093900e+01
-6.804600e-01,1.841600e+00,-1.484600e-01,-7.689800e-01,1.022800e+01
-1.150300e+00,2.073300e+00,-1.482600e-01,-7.689800e-01,1.041900e+01
-1.167200e+00,2.098700e+00,-1.482400e-01,-7.689800e-01,1.080300e+01
-2.444900e+00,1.794100e+00,-1.485000e-01,-7.689800e-01,1.051500e+01
-2.521000e+00,1.746400e+00,-1.485400e-01,-7.689800e-01,1.078600e+01
-5.806000e-01,1.850700e+00,-1.484500e-01,-7.369400e-01,1.040900e+01
-5.909700e-01,1.878500e+00,-1.484300e-01,-7.369400e-01,1.151800e+01
-5.855100e-01,1.919300e+00,-1.483900e-01,-7.369400e-01,1.158300e+01
-5.312200e-01,1.977200e+00,-1.483400e-01,-7.369400e-01,1.108100e+01
-4.747400e-01,2.031200e+00,-1.483000e-01,-7.369400e-01,1.036800e+01
-1.131700e+00,2.084900e+00,-1.482500e-01,-7.369400e-01,1.054000e+01
-1.167200e+00,2.107900e+00,-1.482300e-01,-7.369400e-01,1.089900e+01
-1.222300e+00,2.117100e+00,-1.482300e-01,-7.369400e-01,1.028400e+01
-2.397400e+00,1.819700e+00,-1.484800e-01,-7.369400e-01,1.023300e+01
-2.473000e+00,1.771800e+00,-1.485200e-01,-7.369400e-01,1.074300e+01
-1.016000e+00,1.337200e+00,-1.488800e-01,-7.049000e-01,1.021500e+01
-6.065200e-01,1.889100e+00,-1.484200e-01,-7.049000e-01,1.067700e+01
-5.222100e-01,1.941500e+00,-1.483700e-01,-7.049000e-01,1.111800e+01
-4.346300e-01,1.988400e+00,-1.483300e-01,-7.049000e-01,1.127100e+01
-3.928900e-01,2.034200e+00,-1.483000e-01,-7.049000e-01,1.098200e+01
-2.421200e+00,1.783900e+00,-1.485100e-01,-7.049000e-01,1.051400e+01
-2.473000e+00,1.781500e+00,-1.485100e-01,-7.049000e-01,1.077400e+01
0,4.330400e+00,-1.463700e-01,-7.049000e-01,1.030500e+01
-3.110400e-01,2.022400e+00,-1.483100e-01,-6.728600e-01,1.012800e+01
0,4.290600e+00,-1.464100e-01,-6.728600e-01,1.053500e+01
0,4.324400e+00,-1.463800e-01,-6.728600e-01,1.074200e+01
0,0,-1.500000e-01,-6.408200e-01,9.155400e+00
-2.434800e+00,2.306300e+00,-1.480700e-01,-6.408200e-01,1.050100e+01
-2.459900e+00,2.373500e+00,-1.480100e-01,-6.408200e-01,1.123900e+01
-2.512000e+00,2.375200e+00,-1.480100e-01,-6.408200e-01,1.109900e+01
-2.592000e+00,2.340400e+00,-1.480400e-01,-6.408200e-01,9.995800e+00
6.711800e-02,4.294600e+00,-1.464000e-01,-6.408200e-01,1.104400e+01
3.383200e-02,4.330100e+00,-1.463700e-01,-6.408200e-01,1.105400e+01
-5.269600e+00,2.933000e+00,-1.475400e-01,-6.408200e-01,1.008900e+01
-2.434800e+00,2.313300e+00,-1.480600e-01,-6.087800e-01,1.032400e+01
-2.486600e+00,2.348800e+00,-1.480300e-01,-6.087800e-01,1.108700e+01
-2.593100e+00,2.284200e+00,-1.480900e-01,-6.087800e-01,1.082500e+01
0,4.291700e+00,-1.464000e-01,-6.087800e-01,1.054200e+01
0,4.324900e+00,-1.463800e-01,-6.087800e-01,1.045200e+01
-2.005400e+00,1.670800e+00,-1.486000e-01,-5.767400e-01,1.012900e+01
-2.032100e+00,1.700000e+00,-1.485800e-01,-5.767400e-01,1.013600e+01
-2.284200e+00,2.208900e+00,-1.481500e-01,-5.767400e-01,1.032400e+01
-2.359500e+00,2.174000e+00,-1.481800e-01,-5.767400e-01,1.050400e+01
-6.275300e-02,6.510900e-01,-1.494500e-01,-5.447000e-01,9.397700e+00
4.387200e-01,2.921200e-01,-1.497600e-01,-5.447000e-01,9.466500e+00
4.638300e-01,6.392000e-01,-1.494600e-01,-5.447000e-01,9.707900e+00
-4.965700e-02,7.517900e-01,-1.493700e-01,-5.447000e-01,9.980700e+00
-2.025800e+00,1.617300e+00,-1.486500e-01,-5.447000e-01,1.022200e+01
-2.156500e+00,1.532900e+00,-1.487200e-01,-5.447000e-01,1.020300e+01
-2.473000e+00,1.811600e+00,-1.484800e-01,-5.447000e-01,1.054200e+01
-2.476800e+00,1.837600e+00,-1.484600e-01,-5.447000e-01,1.025000e+01
-2.333900e+00,2.148700e+00,-1.482000e-01,-5.447000e-01,1.022800e+01
-2.384600e+00,2.142200e+00,-1.482100e-01,-5.447000e-01,1.045300e+01
-2.486600e+00,1.860300e+00,-1.484400e-01,-5.447000e-01,9.895900e+00
1.145900e-01,5.930600e-01,-1.495000e-01,-5.126600e-01,9.728500e+00
1.140500e-01,5.716700e-01,-1.495200e-01,-5.126600e-01,9.913100e+00
-2.497000e+00,1.791200e+00,-1.485000e-01,-5.126600e-01,1.014100e+01
1.260500e-01,6.285800e-01,-1.494700e-01,-4.806200e-01,9.943300e+00
1.320500e-01,6.175900e-01,-1.494800e-01,-4.806200e-01,9.860600e+00
-2.005400e+00,1.683600e+00,-1.485900e-01,-4.806200e-01,1.029200e+01
-2.011400e+00,1.731800e+00,-1.485500e-01,-4.806200e-01,1.031100e+01
-1.527900e-01,6.057500e-01,-1.494900e-01,-4.165300e-01,9.836700e+00
-1.718900e-01,6.315400e-01,-1.494700e-01,-4.165300e-01,9.629800e+00
-2.155400e+00,5.065900e+00,-1.457600e-01,-4.165300e-01,1.057800e+01
-2.255800e+00,5.072900e+00,-1.457500e-01,-4.165300e-01,1.164900e+01
-2.357300e+00,5.066100e+00,-1.457600e-01,-4.165300e-01,1.160700e+01
-2.372100e+00,5.097100e+00,-1.457300e-01,-4.165300e-01,1.053900e+01
-3.287700e-01,8.389900e+00,-1.429700e-01,-4.165300e-01,1.139100e+01
-3.961600e-01,8.437400e+00,-1.429300e-01,-4.165300e-01,1.172800e+01
-4.641000e-01,8.473700e+00,-1.429000e-01,-4.165300e-01,1.102100e+01
-1.364200e-01,5.237000e-01,-1.495600e-01,-3.844900e-01,9.824500e+00
-1.489700e-01,5.136100e-01,-1.495700e-01,-3.844900e-01,9.715100e+00
-2.155400e+00,5.079400e+00,-1.457400e-01,-3.844900e-01,1.161800e+01
-2.212400e+00,5.092600e+00,-1.457300e-01,-3.844900e-01,1.257400e+01
-2.313700e+00,5.085900e+00,-1.457400e-01,-3.844900e-01,1.243200e+01
-2.416000e+00,5.076100e+00,-1.457500e-01,-3.844900e-01,1.109900e+01
-3.928900e-01,8.226900e+00,1.554000e+00,-3.844900e-01,1.016400e+01
-3.945200e-01,8.370300e+00,-1.429900e-01,-3.844900e-01,1.166100e+01
-4.621900e-01,8.424200e+00,-1.429400e-01,-3.844900e-01,1.199700e+01
-5.967000e-01,8.459400e+00,-1.429100e-01,-3.844900e-01,1.123300e+01
4.583700e-01,7.457100e-01,-1.493800e-01,-3.524500e-01,9.650800e+00
4.984800e-01,7.009600e-01,-1.494100e-01,-3.524500e-01,9.737500e+00
-2.284700e+00,5.019800e+00,-1.457900e-01,-3.524500e-01,1.070700e+01
-2.255800e+00,5.072900e+00,-1.457500e-01,-3.524500e-01,1.162000e+01
-2.270000e+00,5.103300e+00,-1.457200e-01,-3.524500e-01,1.135900e+01
-4.621900e-01,8.328600e+00,-1.430200e-01,-3.524500e-01,1.026600e+01
0,0,-1.500000e-01,-1.281600e-01,9.585300e+00
-1.364200e-03,3.449700e-02,-1.499700e-01,-1.281600e-01,9.313700e+00
-2.384600e-01,5.712500e-01,-1.495200e-01,-1.281600e-01,9.266600e+00
1.746200e-01,6.315900e-01,-1.494700e-01,-1.281600e-01,9.433600e+00
1.890800e-01,6.112800e-01,-1.494900e-01,-1.281600e-01,9.339400e+00
4.540000e-01,3.357400e-01,-1.497200e-01,-1.281600e-01,1.035900e+01
5.083000e-01,6.899000e-01,-1.494200e-01,-1.281600e-01,1.084100e+01
5.729600e-01,7.694100e-01,-1.493600e-01,-1.281600e-01,1.103900e+01
3.164900e-01,8.496500e-01,-1.492900e-01,-1.281600e-01,1.099300e+01
4.992900e-01,6.195000e-01,-1.494800e-01,-1.281600e-01,1.088700e+01
5.582300e-01,6.994200e-01,-1.494100e-01,-1.281600e-01,1.065000e+01
5.762300e-01,8.340600e-01,-1.493000e-01,-1.281600e-01,1.018100e+01
5.391300e-01,7.264300e-01,-1.493900e-01,-9.612300e-02,1.128800e+01
5.672300e-01,7.493500e-01,-1.493700e-01,-9.612300e-02,1.260100e+01
6.035200e-01,7.625000e-01,-1.493600e-01,-9.612300e-02,1.297400e+01
6.488100e-01,7.682000e-01,-1.493600e-01,-9.612300e-02,1.248900e+01
7.121100e-01,5.586100e-01,-1.495300e-01,-9.612300e-02,1.147000e+01
4.990200e-01,6.188900e-01,-1.494800e-01,-9.612300e-02,1.094200e+01
5.587700e-01,7.139000e-01,-1.494000e-01,-9.612300e-02,1.040900e+01
0,0,-1.500000e-01,-6.408200e-02,9.397700e+00
4.078900e-01,5.650600e-01,-1.495300e-01,-6.408200e-02,1.005000e+01
4.387200e-01,5.911300e-01,-1.495000e-01,-6.408200e-02,9.780000e+00
5.675000e-01,7.037300e-01,-1.494100e-01,-6.408200e-02,1.259800e+01
5.819600e-01,7.394600e-01,-1.493800e-01,-6.408200e-02,1.386000e+01
6.035200e-01,7.567800e-01,-1.493700e-01,-6.408200e-02,1.420300e+01
6.329800e-01,7.718200e-01,-1.493500e-01,-6.408200e-02,1.362200e+01
6.630000e-01,8.109800e-01,-1.493200e-01,-6.408200e-02,1.200700e+01
4.229000e-01,4.112100e-01,-1.496600e-01,-6.408200e-02,1.072900e+01
4.802000e-01,2.216400e-01,-1.498100e-01,-6.408200e-02,1.016500e+01
0,0,-1.500000e-01,-3.204100e-02,1.581700e+01
-4.010700e-02,2.909700e-02,-1.499800e-01,-3.204100e-02,1.515800e+01
-7.312100e-02,6.291400e-02,-1.499500e-01,-3.204100e-02,1.430300e+01
-1.091400e-02,1.330900e-01,-1.498900e-01,-3.204100e-02,1.350700e+01
-4.911100e-03,1.333500e-01,-1.498900e-01,-3.204100e-02,1.262200e+01
7.639500e-03,1.714600e-01,-1.498600e-01,-3.204100e-02,1.199300e+01
5.525000e-01,6.583300e-01,-1.494500e-01,-3.204100e-02,1.332600e+01
5.604100e-01,7.138300e-01,-1.494000e-01,-3.204100e-02,1.503300e+01
5.746000e-01,7.352500e-01,-1.493800e-01,-3.204100e-02,1.577900e+01
5.958800e-01,7.492100e-01,-1.493700e-01,-3.204100e-02,1.563100e+01
6.329800e-01,7.564500e-01,-1.493700e-01,-3.204100e-02,1.448200e+01
6.957400e-01,7.812400e-01,-1.493500e-01,-3.204100e-02,1.230000e+01
-7.328400e-01,5.821700e-01,-1.495100e-01,-3.204100e-02,1.114400e+01
-1.012200e+00,5.426800e-01,-1.495500e-01,-3.204100e-02,1.180800e+01
-9.331100e-01,4.723800e-01,-1.496000e-01,-3.204100e-02,1.263600e+01
-9.590300e-01,3.630000e-01,-1.497000e-01,-3.204100e-02,1.196000e+01
-1.016000e+00,7.896000e-01,-1.493400e-01,-3.204100e-02,1.152600e+01
-1.032100e+00,7.892900e-01,-1.493400e-01,-3.204100e-02,1.104100e+01
