0,0,-1.500000e-01,0,1.676500e+01
-7.202900e-02,6.860100e-02,-1.510100e-01,0,1.532400e+01
-1.227800e-02,1.313100e-01,-1.519300e-01,0,1.448300e+01
-4.911100e-03,1.279200e-01,-1.518800e-01,0,1.361300e+01
1.336900e-02,1.699200e-01,-1.524900e-01,0,1.299300e+01
2.592000e-01,2.253900e-01,-1.533000e-01,0,1.326100e+01
5.604100e-01,7.143600e-01,-1.604700e-01,0,1.456800e+01
5.819600e-01,7.400200e-01,-1.608500e-01,0,1.507600e+01
6.111600e-01,7.629700e-01,-1.611900e-01,0,1.467600e+01
5.143000e-01,8.002400e-01,-1.617300e-01,0,1.381800e+01
5.484000e-01,7.935100e-01,-1.616300e-01,0,1.413700e+01
5.751400e-01,8.086600e-01,-1.618600e-01,0,1.321900e+01
5.937000e-01,8.700100e-01,-1.627600e-01,0,1.153100e+01
-7.699500e-01,7.418600e-01,-1.608800e-01,0,1.228300e+01
-9.740300e-01,6.989000e-01,-1.602500e-01,0,1.295400e+01
-9.724000e-01,6.564900e-01,-1.596300e-01,0,1.332700e+01
-9.893100e-01,2.913100e-01,-1.542700e-01,0,1.188400e+01
-1.016000e+00,7.921300e-01,-1.616100e-01,0,1.201200e+01
-1.021500e+00,8.038700e-01,-1.617900e-01,0,1.176900e+01
-1.080400e+00,8.246800e-01,-1.620900e-01,0,1.018300e+01
0,0,-1.500000e-01,3.204100e-02,1.575300e+01
-7.202900e-02,7.032900e-02,-1.510300e-01,3.204100e-02,1.431400e+01
-1.364200e-02,1.300900e-01,-1.519100e-01,3.204100e-02,1.347800e+01
-4.911100e-03,1.275300e-01,-1.518700e-01,3.204100e-02,1.261800e+01
1.336900e-02,1.704800e-01,-1.525000e-01,3.204100e-02,1.194700e+01
2.592000e-01,2.458200e-01,-1.536000e-01,3.204100e-02,1.222200e+01
5.604100e-01,7.139400e-01,-1.604700e-01,3.204100e-02,1.363200e+01
5.746000e-01,7.467000e-01,-1.609500e-01,3.204100e-02,1.419100e+01
6.111600e-01,7.632000e-01,-1.611900e-01,3.204100e-02,1.378500e+01
5.143000e-01,7.872100e-01,-1.615400e-01,3.204100e-02,1.298900e+01
5.565900e-01,7.753200e-01,-1.613700e-01,3.204100e-02,1.362600e+01
5.836000e-01,7.959700e-01,-1.616700e-01,3.204100e-02,1.278400e+01
5.937000e-01,8.835700e-01,-1.629500e-01,3.204100e-02,1.123600e+01
6.212500e-01,9.705700e-01,-1.642300e-01,3.204100e-02,1.096800e+01
-7.699500e-01,6.995500e-01,-1.602600e-01,3.204100e-02,1.157100e+01
-1.021800e+00,6.190800e-01,-1.590800e-01,3.204100e-02,1.207900e+01
-9.625700e-01,6.054600e-01,-1.588800e-01,3.204100e-02,1.227500e+01
-1.016000e+00,8.132600e-01,-1.619200e-01,3.204100e-02,1.154100e+01
-1.032100e+00,8.134500e-01,-1.619300e-01,3.204100e-02,1.099300e+01
0,0,-1.500000e-01,6.408200e-02,1.056400e+01
5.598600e-01,7.535400e-01,-1.610500e-01,6.408200e-02,1.068400e+01
5.500400e-01,7.436700e-01,-1.609000e-01,6.408200e-02,1.232100e+01
5.538600e-01,7.494300e-01,-1.609900e-01,6.408200e-02,1.309000e+01
5.729600e-01,7.579600e-01,-1.611100e-01,6.408200e-02,1.295300e+01
5.836000e-01,7.710100e-01,-1.613000e-01,6.408200e-02,1.187800e+01
-7.975100e-01,5.692000e-01,-1.583500e-01,6.408200e-02,1.042300e+01
-8.086900e-01,8.820000e-01,-1.629300e-01,6.408200e-02,9.761000e+00
0,0,-1.500000e-01,9.612300e-02,9.610900e+00
4.965700e-01,6.926100e-01,-1.601500e-01,9.612300e-02,1.089000e+01
5.301200e-01,7.367200e-01,-1.608000e-01,9.612300e-02,1.160600e+01
5.565900e-01,7.844500e-01,-1.615000e-01,9.612300e-02,1.137400e+01
5.666900e-01,8.116000e-01,-1.619000e-01,9.612300e-02,1.013000e+01
-6.359900e-01,3.702000e-01,-1.554300e-01,9.612300e-02,1.064400e+01
-1.088600e+00,7.240000e-01,-1.606100e-01,9.612300e-02,1.002000e+01
-1.418800e+00,1.769200e+00,-1.759400e-01,-9.932700e-01,1.016800e+01
-1.404600e+00,1.826200e+00,-1.767800e-01,-9.932700e-01,9.863200e+00
-1.401000e+00,1.778100e+00,-1.760700e-01,-9.291900e-01,1.029300e+01
-1.422600e+00,1.805900e+00,-1.764800e-01,-9.291900e-01,1.047600e+01
-3.978000e-01,2.375800e+00,-1.848300e-01,-8.010300e-01,9.941900e+00
0,0,-1.500000e-01,-4.485700e-01,9.373200e+00
-8.692600e-01,1.814900e+00,-1.766100e-01,-4.485700e-01,1.020500e+01
-9.003700e-01,1.838600e+00,-1.769600e-01,-4.485700e-01,1.021000e+01
-1.031300e+00,1.942700e+00,-1.784800e-01,-4.485700e-01,1.012900e+01
-1.082600e+00,1.938500e+00,-1.784200e-01,-4.485700e-01,1.109600e+01
-1.117300e+00,1.928500e+00,-1.782700e-01,-4.485700e-01,1.097200e+01
-8.703500e-01,1.797200e+00,-1.763500e-01,-4.165300e-01,1.184100e+01
-8.853600e-01,1.826700e+00,-1.767800e-01,-4.165300e-01,1.308600e+01
-9.003700e-01,1.856200e+00,-1.772100e-01,-4.165300e-01,1.321900e+01
-9.320200e-01,1.879000e+00,-1.775500e-01,-4.165300e-01,1.235000e+01
-9.472900e-01,1.910800e+00,-1.780200e-01,-4.165300e-01,1.021500e+01
-5.456800e-02,2.074800e-01,-1.530400e-01,-3.844900e-01,9.496800e+00
-4.965700e-02,4.866600e-02,-1.507100e-01,-3.844900e-01,9.426100e+00
-8.545300e-01,1.806100e+00,-1.764800e-01,-3.844900e-01,1.214300e+01
-8.853600e-01,1.827700e+00,-1.768000e-01,-3.844900e-01,1.344700e+01
-9.003700e-01,1.858200e+00,-1.772400e-01,-3.844900e-01,1.363200e+01
-9.320200e-01,1.884400e+00,-1.776300e-01,-3.844900e-01,1.279500e+01
-9.472900e-01,1.925800e+00,-1.782300e-01,-3.844900e-01,1.070100e+01
-7.754100e-01,1.777200e+00,-1.760600e-01,-3.524500e-01,1.020200e+01
-8.531700e-01,1.841600e+00,-1.770000e-01,-3.524500e-01,1.179600e+01
-9.167400e-01,1.856300e+00,-1.772200e-01,-3.524500e-01,1.215500e+01
-9.653000e-01,1.874900e+00,-1.774900e-01,-3.524500e-01,1.149400e+01
2.747500e-01,1.814700e+00,-1.766100e-01,-3.204100e-01,1.020000e+01
2.799300e-01,1.859800e+00,-1.772700e-01,-3.204100e-01,1.024500e+01
-8.370700e-01,1.873000e+00,-1.774600e-01,-3.204100e-01,1.014400e+01
-8.676300e-01,1.902300e+00,-1.778900e-01,-3.204100e-01,9.962400e+00
2.643800e-01,1.652900e+00,-1.742300e-01,-2.883700e-01,9.692100e+00
2.979400e-01,1.745700e+00,-1.755900e-01,-2.883700e-01,1.045500e+01
3.036700e-01,1.801800e+00,-1.764200e-01,-2.883700e-01,1.075000e+01
2.799300e-01,1.856800e+00,-1.772200e-01,-2.883700e-01,1.040500e+01
3.001200e-01,4.086300e-01,-1.559900e-01,-2.563300e-01,1.031500e+01
3.036700e-01,4.908900e-01,-1.572000e-01,-2.563300e-01,1.035500e+01
2.553800e-01,1.761100e+00,-1.758200e-01,-2.563300e-01,1.003900e+01
2.747500e-01,1.809700e+00,-1.765300e-01,-2.563300e-01,1.027400e+01
2.946700e-01,4.636600e-01,-1.568000e-01,-2.242900e-01,1.061600e+01
2.922100e-01,5.247300e-01,-1.576900e-01,-2.242900e-01,1.070800e+01
2.821100e-01,5.818600e-01,-1.585300e-01,-2.242900e-01,9.967700e+00
-9.538400e-01,8.000200e-01,-1.617300e-01,-2.242900e-01,9.705600e+00
2.728400e-01,5.058700e-01,-1.574200e-01,-1.922500e-01,9.762300e+00
2.692900e-01,5.272900e-01,-1.577300e-01,-1.922500e-01,1.019800e+01
2.761100e-01,5.596000e-01,-1.582000e-01,-1.922500e-01,9.603700e+00
-8.250600e-01,8.324800e-01,-1.622100e-01,-1.922500e-01,1.000200e+01
-8.479800e-01,8.166500e-01,-1.619700e-01,-1.922500e-01,1.061900e+01
-9.020000e-01,8.173100e-01,-1.619800e-01,-1.922500e-01,1.021100e+01
3.904300e-01,1.784000e+00,-1.761600e-01,-1.922500e-01,9.629000e+00
4.278100e-01,5.638900e-01,-1.582700e-01,-1.602100e-01,1.056300e+01
4.351800e-01,6.199000e-01,-1.590900e-01,-1.602100e-01,1.097400e+01
4.338100e-01,6.928600e-01,-1.601600e-01,-1.602100e-01,1.066600e+01
-8.277900e-01,8.546300e-01,-1.625300e-01,-1.602100e-01,1.029800e+01
0,0,-1.500000e-01,-1.281600e-01,9.816600e+00
3.939800e-01,3.796800e-01,-1.555700e-01,-1.281600e-01,9.607400e+00
4.493600e-01,5.326900e-01,-1.578100e-01,-1.281600e-01,1.052200e+01
4.507300e-01,5.644200e-01,-1.582800e-01,-1.281600e-01,1.184500e+01
4.589100e-01,6.153100e-01,-1.590200e-01,-1.281600e-01,1.223600e+01
4.992900e-01,6.956600e-01,-1.602000e-01,-1.281600e-01,1.178200e+01
5.751400e-01,8.000600e-01,-1.617300e-01,-1.281600e-01,1.067600e+01
-9.085500e-01,7.718800e-01,-1.613200e-01,-1.281600e-01,1.012100e+01
0,0,-1.500000e-01,-9.612300e-02,9.730100e+00
3.680600e-01,3.219700e-01,-1.547200e-01,-9.612300e-02,9.593600e+00
3.492300e-01,4.196200e-01,-1.561500e-01,-9.612300e-02,9.717900e+00
4.788300e-01,5.346500e-01,-1.578400e-01,-9.612300e-02,1.202400e+01
4.736500e-01,5.970200e-01,-1.587500e-01,-9.612300e-02,1.339600e+01
4.668300e-01,6.431600e-01,-1.594300e-01,-9.612300e-02,1.380000e+01
4.911100e-01,6.978500e-01,-1.602300e-01,-9.612300e-02,1.336900e+01
5.328500e-01,7.672600e-01,-1.612500e-01,-9.612300e-02,1.202000e+01
-8.594400e-01,7.371200e-01,-1.608100e-01,-9.612300e-02,1.120600e+01
-8.840000e-01,7.578900e-01,-1.611100e-01,-9.612300e-02,1.203700e+01
-9.085500e-01,7.817000e-01,-1.614600e-01,-9.612300e-02,1.186800e+01
-9.331100e-01,8.169400e-01,-1.619800e-01,-9.612300e-02,1.075400e+01
0,0,-1.500000e-01,-6.408200e-02,1.065000e+01
-2.346400e-02,1.636200e-02,-1.502400e-01,-6.408200e-02,9.471200e+00
4.229000e-01,2.170400e-01,-1.531800e-01,-6.408200e-02,9.941900e+00
4.965700e-01,6.886900e-01,-1.601000e-01,-6.408200e-02,1.231900e+01
5.156600e-01,7.228600e-01,-1.606000e-01,-6.408200e-02,1.403100e+01
5.194800e-01,6.860100e-01,-1.600600e-01,-6.408200e-02,1.506200e+01
5.143000e-01,6.907500e-01,-1.601300e-01,-6.408200e-02,1.513800e+01
5.156600e-01,7.255600e-01,-1.606400e-01,-6.408200e-02,1.447200e+01
5.328500e-01,7.598900e-01,-1.611400e-01,-6.408200e-02,1.309700e+01
5.413100e-01,7.480000e-01,-1.609700e-01,-6.408200e-02,1.102100e+01
-8.403400e-01,8.100600e-01,-1.618800e-01,-6.408200e-02,1.163100e+01
-8.741700e-01,7.940000e-01,-1.616400e-01,-6.408200e-02,1.232200e+01
-8.984600e-01,7.925800e-01,-1.616200e-01,-6.408200e-02,1.207400e+01
-9.123700e-01,8.240400e-01,-1.620800e-01,-6.408200e-02,1.097100e+01
0,0,-1.500000e-01,-3.204100e-02,1.573100e+01
-7.202900e-02,6.756200e-02,-1.509900e-01,-3.204100e-02,1.430100e+01
-1.227800e-02,1.292900e-01,-1.519000e-01,-3.204100e-02,1.343800e+01
-4.911100e-03,1.260100e-01,-1.518500e-01,-3.204100e-02,1.259300e+01
1.336900e-02,1.675600e-01,-1.524600e-01,-3.204100e-02,1.197900e+01
5.456800e-01,6.780300e-01,-1.599400e-01,-3.204100e-02,1.207800e+01
5.320300e-01,7.200600e-01,-1.605600e-01,-3.204100e-02,1.355600e+01
5.156600e-01,7.249600e-01,-1.606300e-01,-3.204100e-02,1.449700e+01
5.194800e-01,7.300800e-01,-1.607000e-01,-3.204100e-02,1.519700e+01
5.301200e-01,7.431500e-01,-1.609000e-01,-3.204100e-02,1.527400e+01
5.402200e-01,7.690900e-01,-1.612800e-01,-3.204100e-02,1.464700e+01
5.582300e-01,7.876200e-01,-1.615500e-01,-3.204100e-02,1.331800e+01
5.675000e-01,8.079000e-01,-1.618500e-01,-3.204100e-02,1.122600e+01
-7.112900e-01,8.601400e-01,-1.626100e-01,-3.204100e-02,1.031000e+01
-7.514000e-01,7.836300e-01,-1.614900e-01,-3.204100e-02,1.067000e+01
-9.358400e-01,6.635900e-01,-1.597300e-01,-3.204100e-02,1.192600e+01
-9.134600e-01,6.874400e-01,-1.600800e-01,-3.204100e-02,1.267300e+01
-9.287400e-01,6.881300e-01,-1.600900e-01,-3.204100e-02,1.197800e+01
-1.036800e+00,5.572300e-01,-1.581700e-01,-3.204100e-02,1.026500e+01
-1.053400e+00,7.093600e-01,-1.604000e-01,-3.204100e-02,1.021700e+01
