0,0,-1.500000e-01,0,1.679600e+01
-7.202900e-02,6.825100e-02,-1.495300e-01,0,1.532200e+01
-1.364200e-02,1.290800e-01,-1.491100e-01,0,1.443100e+01
-3.274100e-03,1.310800e-01,-1.490900e-01,0,1.363500e+01
1.336900e-02,1.712900e-01,-1.488200e-01,0,1.297400e+01
2.523800e-01,2.429800e-01,-1.483200e-01,0,1.353300e+01
5.604100e-01,7.144300e-01,-1.450600e-01,0,1.495000e+01
5.672300e-01,7.473700e-01,-1.448300e-01,0,1.549500e+01
5.882400e-01,7.677400e-01,-1.446900e-01,0,1.508100e+01
6.250700e-01,7.954400e-01,-1.445000e-01,0,1.334900e+01
-8.163300e-01,7.785000e-01,-1.446200e-01,0,1.220200e+01
-9.358400e-01,7.546000e-01,-1.447800e-01,0,1.345700e+01
-9.429300e-01,7.322300e-01,-1.449400e-01,0,1.378300e+01
-9.388400e-01,6.827700e-01,-1.452800e-01,0,1.223000e+01
-1.026400e+00,7.628800e-01,-1.447300e-01,0,1.203000e+01
-1.032100e+00,7.841700e-01,-1.445800e-01,0,1.191000e+01
-1.069500e+00,8.239800e-01,-1.443100e-01,0,1.046800e+01
0,0,-1.500000e-01,3.204100e-02,1.581000e+01
-7.202900e-02,6.934900e-02,-1.495200e-01,3.204100e-02,1.427800e+01
-1.364200e-02,1.324200e-01,-1.490800e-01,3.204100e-02,1.339700e+01
-4.911100e-03,1.351600e-01,-1.490700e-01,3.204100e-02,1.263100e+01
1.145900e-02,1.749400e-01,-1.487900e-01,3.204100e-02,1.200100e+01
2.523800e-01,2.666500e-01,-1.481600e-01,3.204100e-02,1.251400e+01
5.604100e-01,7.143100e-01,-1.450600e-01,3.204100e-02,1.392400e+01
5.672300e-01,7.486800e-01,-1.448300e-01,3.204100e-02,1.451000e+01
5.882400e-01,7.694800e-01,-1.446800e-01,3.204100e-02,1.419900e+01
6.171600e-01,7.997700e-01,-1.444700e-01,3.204100e-02,1.280600e+01
-8.163300e-01,7.651000e-01,-1.447100e-01,3.204100e-02,1.115400e+01
-9.262900e-01,7.698400e-01,-1.446800e-01,3.204100e-02,1.238700e+01
-9.232800e-01,7.478800e-01,-1.448300e-01,3.204100e-02,1.271100e+01
-8.883600e-01,7.320500e-01,-1.449400e-01,3.204100e-02,1.131900e+01
-1.067900e+00,7.141200e-01,-1.450600e-01,3.204100e-02,1.096200e+01
-1.053400e+00,7.374200e-01,-1.449000e-01,3.204100e-02,1.086000e+01
0,0,-1.500000e-01,6.408200e-02,9.825200e+00
5.598600e-01,7.570300e-01,-1.447700e-01,6.408200e-02,1.021200e+01
5.882400e-01,7.691100e-01,-1.446800e-01,6.408200e-02,1.038900e+01
6.171600e-01,7.796700e-01,-1.446100e-01,6.408200e-02,1.005400e+01
-7.639500e-01,4.959000e-01,-1.465700e-01,6.408200e-02,1.084700e+01
-7.661300e-01,5.380400e-01,-1.462800e-01,6.408200e-02,1.122200e+01
-7.975100e-01,5.660800e-01,-1.460900e-01,6.408200e-02,1.046300e+01
-4.048900e-01,3.609200e+00,-1.250500e-01,-1.057400e+00,1.017500e+01
-4.962900e-01,3.531700e+00,-1.255900e-01,-1.057400e+00,1.028800e+01
-7.025600e-01,3.526900e+00,-1.256200e-01,-9.932700e-01,1.001100e+01
-8.228800e-01,3.523800e+00,-1.256500e-01,-9.932700e-01,1.007800e+01
-7.025600e-01,3.519000e+00,-1.256800e-01,-9.612300e-01,1.025400e+01
-7.661300e-01,3.550000e+00,-1.254600e-01,-9.612300e-01,1.027500e+01
-6.452600e-01,1.344600e+00,-1.407100e-01,-9.291900e-01,9.825400e+00
3.227700e-01,3.161400e+00,-1.281500e-01,-9.291900e-01,1.001400e+01
3.765200e-01,3.190200e+00,-1.279500e-01,-9.291900e-01,9.996000e+00
-2.892100e-01,3.676500e+00,-1.245900e-01,-9.291900e-01,1.002900e+01
-5.132100e+00,1.073000e+01,-7.584000e-02,-9.291900e-01,1.000100e+01
-5.053500e+00,1.065600e+01,-7.635200e-02,-9.291900e-01,9.828400e+00
-5.866000e-01,1.350100e+00,-1.406700e-01,-8.971500e-01,1.008700e+01
-6.362600e-01,1.349000e+00,-1.406800e-01,-8.971500e-01,1.009800e+01
3.227700e-01,3.159000e+00,-1.281700e-01,-8.971500e-01,1.033300e+01
3.514200e-01,3.185200e+00,-1.279900e-01,-8.971500e-01,1.054000e+01
4.313600e-01,3.218200e+00,-1.277600e-01,-8.971500e-01,1.001600e+01
3.227700e-01,3.160800e+00,-1.281500e-01,-8.651100e-01,1.018200e+01
3.012100e-01,3.187600e+00,-1.279700e-01,-8.651100e-01,1.070800e+01
3.298600e-01,3.193200e+00,-1.279300e-01,-8.651100e-01,1.037800e+01
1.746200e-01,2.747100e+00,-1.310100e-01,-7.689800e-01,9.974400e+00
1.105000e-01,2.770600e+00,-1.308500e-01,-7.689800e-01,1.025000e+01
1.309600e-01,2.756200e+00,-1.309500e-01,-7.369400e-01,1.042500e+01
1.105000e-01,2.783200e+00,-1.307600e-01,-7.369400e-01,1.061900e+01
-9.358400e-01,2.258100e+00,-1.343900e-01,-4.806200e-01,1.003200e+01
-9.492000e-01,2.290300e+00,-1.341700e-01,-4.806200e-01,1.110600e+01
-9.822200e-01,2.307800e+00,-1.340500e-01,-4.806200e-01,1.134700e+01
-1.055600e+00,2.289900e+00,-1.341700e-01,-4.806200e-01,1.061400e+01
-9.358400e-01,2.257400e+00,-1.344000e-01,-4.485700e-01,1.178200e+01
-9.685800e-01,2.280600e+00,-1.342400e-01,-4.485700e-01,1.304700e+01
-1.001900e+00,2.301600e+00,-1.340900e-01,-4.485700e-01,1.327900e+01
-1.055600e+00,2.311500e+00,-1.340200e-01,-4.485700e-01,1.253900e+01
-1.110500e+00,2.313300e+00,-1.340100e-01,-4.485700e-01,1.115900e+01
-1.145900e+00,2.348800e+00,-1.337700e-01,-4.485700e-01,1.108800e+01
-1.202700e+00,2.365400e+00,-1.336500e-01,-4.485700e-01,1.138300e+01
-1.239500e+00,2.385700e+00,-1.335100e-01,-4.485700e-01,1.101600e+01
-1.319400e+00,2.378900e+00,-1.335600e-01,-4.485700e-01,9.961600e+00
-9.358400e-01,2.257600e+00,-1.344000e-01,-4.165300e-01,1.168600e+01
-9.685800e-01,2.280600e+00,-1.342400e-01,-4.165300e-01,1.294600e+01
-1.021500e+00,2.292800e+00,-1.341500e-01,-4.165300e-01,1.316500e+01
-1.055600e+00,2.311200e+00,-1.340300e-01,-4.165300e-01,1.246400e+01
-1.110500e+00,2.322500e+00,-1.339500e-01,-4.165300e-01,1.131900e+01
-1.145900e+00,2.352100e+00,-1.337400e-01,-4.165300e-01,1.126400e+01
-1.181900e+00,2.375200e+00,-1.335800e-01,-4.165300e-01,1.151800e+01
-1.218500e+00,2.395200e+00,-1.334500e-01,-4.165300e-01,1.109000e+01
5.118400e-01,6.929700e-01,-1.452100e-01,-3.844900e-01,9.920800e+00
5.301200e-01,7.046000e-01,-1.451300e-01,-3.844900e-01,9.703800e+00
-9.298300e-01,2.297100e+00,-1.341200e-01,-3.844900e-01,1.060900e+01
-1.021500e+00,2.290100e+00,-1.341700e-01,-3.844900e-01,1.064300e+01
-1.135300e+00,2.273700e+00,-1.342900e-01,-3.844900e-01,1.008300e+01
0,0,-1.500000e-01,-2.883700e-01,9.604400e+00
1.489700e-01,5.464000e-01,-1.462200e-01,-2.883700e-01,9.429000e+00
5.762300e-01,4.834300e-01,-1.466600e-01,-2.883700e-01,1.034600e+01
5.661400e-01,4.991300e-01,-1.465500e-01,-2.883700e-01,1.036900e+01
5.036600e-01,5.643200e-01,-1.461000e-01,-2.883700e-01,1.001300e+01
5.009300e-01,6.476700e-01,-1.455200e-01,-2.883700e-01,1.113300e+01
5.194800e-01,6.867100e-01,-1.452500e-01,-2.883700e-01,1.182100e+01
5.380400e-01,7.041200e-01,-1.451300e-01,-2.883700e-01,1.170500e+01
5.484000e-01,7.108200e-01,-1.450900e-01,-2.883700e-01,1.077800e+01
0,0,-1.500000e-01,-2.563300e-01,9.505800e+00
1.855300e-01,4.869000e-01,-1.466300e-01,-2.563300e-01,9.386900e+00
2.234500e-01,5.859900e-01,-1.459500e-01,-2.563300e-01,9.975800e+00
2.461000e-01,6.229000e-01,-1.456900e-01,-2.563300e-01,1.002400e+01
3.263100e-01,5.239700e-01,-1.463800e-01,-2.563300e-01,9.363100e+00
5.762300e-01,5.172900e-01,-1.464200e-01,-2.563300e-01,9.625300e+00
5.047500e-01,4.635700e-01,-1.468000e-01,-2.563300e-01,9.674900e+00
4.469100e-01,4.711600e-01,-1.467400e-01,-2.563300e-01,9.765600e+00
5.009300e-01,6.558000e-01,-1.454700e-01,-2.563300e-01,1.100100e+01
5.271200e-01,7.016400e-01,-1.451500e-01,-2.563300e-01,1.182600e+01
5.459500e-01,7.169200e-01,-1.450400e-01,-2.563300e-01,1.179600e+01
5.647800e-01,7.084000e-01,-1.451000e-01,-2.563300e-01,1.081000e+01
1.948100e-01,5.841100e-01,-1.459600e-01,-2.242900e-01,9.720000e+00
2.220900e-01,6.258600e-01,-1.456700e-01,-2.242900e-01,9.383800e+00
4.229000e-01,6.042100e-01,-1.458200e-01,-2.242900e-01,9.475300e+00
5.746000e-01,7.476300e-01,-1.448300e-01,-2.242900e-01,1.076200e+01
5.118400e-01,7.868300e-01,-1.445600e-01,-2.242900e-01,1.158900e+01
5.063900e-01,7.878900e-01,-1.445500e-01,-2.242900e-01,1.170500e+01
5.074800e-01,7.931800e-01,-1.445200e-01,-2.242900e-01,1.083800e+01
0,0,-1.500000e-01,-1.922500e-01,9.818000e+00
2.979400e-01,2.236100e-01,-1.484500e-01,-1.922500e-01,1.126800e+01
3.609700e-01,5.124000e-01,-1.464600e-01,-1.922500e-01,1.256800e+01
4.201700e-01,6.599300e-01,-1.454400e-01,-1.922500e-01,1.311100e+01
4.589100e-01,7.340000e-01,-1.449300e-01,-1.922500e-01,1.283500e+01
4.911100e-01,7.902600e-01,-1.445400e-01,-1.922500e-01,1.182300e+01
5.413100e-01,9.005000e-01,-1.437800e-01,-1.922500e-01,1.017900e+01
-9.186500e-01,6.778000e-01,-1.453200e-01,-1.922500e-01,9.653700e+00
3.205800e-01,2.896200e-01,-1.480000e-01,-1.602100e-01,1.004500e+01
3.263100e-01,3.669500e-01,-1.474600e-01,-1.602100e-01,1.194900e+01
3.609700e-01,4.923900e-01,-1.466000e-01,-1.602100e-01,1.325200e+01
3.972500e-01,5.987700e-01,-1.458600e-01,-1.602100e-01,1.362100e+01
4.351800e-01,6.804200e-01,-1.453000e-01,-1.602100e-01,1.324200e+01
4.829200e-01,7.633600e-01,-1.447200e-01,-1.602100e-01,1.220700e+01
5.666900e-01,8.880800e-01,-1.438600e-01,-1.602100e-01,1.056100e+01
-8.689900e-01,4.201200e-01,-1.471000e-01,-1.602100e-01,9.797200e+00
-8.938200e-01,5.491100e-01,-1.462000e-01,-1.602100e-01,1.037300e+01
4.842900e-01,6.235800e-01,-1.456900e-01,-1.281600e-01,9.822600e+00
5.604100e-01,6.884500e-01,-1.452400e-01,-1.281600e-01,1.086000e+01
5.967000e-01,7.237900e-01,-1.450000e-01,-1.281600e-01,1.196800e+01
6.111600e-01,7.633100e-01,-1.447200e-01,-1.281600e-01,1.229400e+01
6.329800e-01,7.814100e-01,-1.446000e-01,-1.281600e-01,1.185800e+01
6.630000e-01,5.976000e-01,-1.458700e-01,-1.281600e-01,1.078600e+01
-8.689900e-01,5.825300e-01,-1.459700e-01,-1.281600e-01,1.050900e+01
-9.232800e-01,6.597800e-01,-1.454400e-01,-1.281600e-01,1.092100e+01
-9.893100e-01,7.030800e-01,-1.451400e-01,-1.281600e-01,1.048200e+01
0,0,-1.500000e-01,-9.612300e-02,9.569800e+00
1.637000e-02,5.371100e-03,-1.499600e-01,-9.612300e-02,9.472900e+00
4.649200e-01,6.077500e-01,-1.458000e-01,-9.612300e-02,9.386800e+00
4.365400e-01,5.132800e-01,-1.464500e-01,-9.612300e-02,9.819500e+00
5.107500e-01,7.391200e-01,-1.448900e-01,-9.612300e-02,1.129700e+01
5.156600e-01,7.528400e-01,-1.448000e-01,-9.612300e-02,1.284000e+01
5.194800e-01,7.719900e-01,-1.446600e-01,-9.612300e-02,1.349000e+01
5.380400e-01,7.948300e-01,-1.445100e-01,-9.612300e-02,1.336000e+01
5.565900e-01,8.210800e-01,-1.443300e-01,-9.612300e-02,1.233400e+01
-8.689900e-01,6.637600e-01,-1.454100e-01,-9.612300e-02,1.108200e+01
-9.036400e-01,5.863300e-01,-1.459500e-01,-9.612300e-02,1.123100e+01
-9.388400e-01,5.442200e-01,-1.462400e-01,-9.612300e-02,1.022600e+01
-3.546900e-03,3.442000e-02,-1.497600e-01,-6.408200e-02,9.384100e+00
-6.439000e-02,1.314700e-02,-1.499100e-01,-6.408200e-02,9.309400e+00
3.546900e-01,2.165200e-01,-1.485000e-01,-6.408200e-02,1.054900e+01
5.816900e-01,6.566000e-01,-1.454600e-01,-6.408200e-02,1.103000e+01
5.377600e-01,7.726600e-01,-1.446600e-01,-6.408200e-02,1.243000e+01
5.271200e-01,7.853300e-01,-1.445700e-01,-6.408200e-02,1.306700e+01
5.380400e-01,7.974500e-01,-1.444900e-01,-6.408200e-02,1.284700e+01
5.565900e-01,8.311700e-01,-1.442600e-01,-6.408200e-02,1.170200e+01
-8.256100e-01,7.413400e-01,-1.448800e-01,-6.408200e-02,1.042800e+01
-8.594400e-01,8.187100e-01,-1.443400e-01,-6.408200e-02,1.125600e+01
-8.938200e-01,8.756800e-01,-1.439500e-01,-6.408200e-02,1.140500e+01
-9.186500e-01,8.466400e-01,-1.441500e-01,-6.408200e-02,1.080000e+01
0,0,-1.500000e-01,-3.204100e-02,1.576800e+01
-7.202900e-02,6.744600e-02,-1.495300e-01,-3.204100e-02,1.431000e+01
-1.364200e-02,1.267600e-01,-1.491200e-01,-3.204100e-02,1.339300e+01
-3.274100e-03,1.290100e-01,-1.491100e-01,-3.204100e-02,1.262400e+01
1.527900e-02,1.703600e-01,-1.488200e-01,-3.204100e-02,1.193900e+01
2.592000e-01,2.053600e-01,-1.485800e-01,-3.204100e-02,1.262700e+01
5.675000e-01,7.088000e-01,-1.451000e-01,-3.204100e-02,1.397900e+01
5.819600e-01,7.392900e-01,-1.448900e-01,-3.204100e-02,1.436100e+01
6.035200e-01,7.693600e-01,-1.446800e-01,-3.204100e-02,1.341700e+01
4.589100e-01,6.119300e-01,-1.457700e-01,-3.204100e-02,1.252300e+01
5.320300e-01,7.851000e-01,-1.445700e-01,-3.204100e-02,1.204600e+01
-8.256100e-01,7.369200e-01,-1.449100e-01,-3.204100e-02,1.145400e+01
-8.976400e-01,8.130500e-01,-1.443800e-01,-3.204100e-02,1.279400e+01
-9.232800e-01,7.885100e-01,-1.445500e-01,-3.204100e-02,1.311700e+01
-9.287400e-01,8.050400e-01,-1.444400e-01,-3.204100e-02,1.165700e+01
-1.026400e+00,7.514800e-01,-1.448100e-01,-3.204100e-02,1.099800e+01
-1.021500e+00,8.080600e-01,-1.444200e-01,-3.204100e-02,1.110100e+01
