0,0,-1.500000e-01,0,1.679000e+01
-7.202900e-02,6.807200e-02,-1.504000e-01,0,1.531900e+01
-1.227800e-02,1.323900e-01,-1.507800e-01,0,1.448900e+01
-4.911100e-03,1.311800e-01,-1.507700e-01,0,1.360400e+01
1.336900e-02,1.717000e-01,-1.510100e-01,0,1.297800e+01
2.592000e-01,2.311300e-01,-1.513600e-01,0,1.339900e+01
5.604100e-01,7.144100e-01,-1.541900e-01,0,1.477000e+01
5.746000e-01,7.432900e-01,-1.543600e-01,0,1.541000e+01
5.882400e-01,7.712100e-01,-1.545200e-01,0,1.525300e+01
6.013400e-01,8.058400e-01,-1.547300e-01,0,1.426900e+01
5.565900e-01,8.635200e-01,-1.550600e-01,0,1.260200e+01
-9.740300e-01,6.450300e-01,-1.537800e-01,0,1.115500e+01
-9.262900e-01,5.920300e-01,-1.534700e-01,0,1.350500e+01
-9.232800e-01,5.723000e-01,-1.533600e-01,0,1.401400e+01
-9.489300e-01,4.470600e-01,-1.526200e-01,0,1.302200e+01
-1.026400e+00,7.220000e-01,-1.542300e-01,0,1.208200e+01
-1.042800e+00,7.443700e-01,-1.543700e-01,0,1.191500e+01
-1.091400e+00,7.323800e-01,-1.542900e-01,0,1.050700e+01
0,0,-1.500000e-01,3.204100e-02,1.577300e+01
-7.202900e-02,6.867600e-02,-1.504000e-01,3.204100e-02,1.429700e+01
-1.227800e-02,1.348600e-01,-1.507900e-01,3.204100e-02,1.347100e+01
-4.911100e-03,1.338400e-01,-1.507800e-01,3.204100e-02,1.260200e+01
1.145900e-02,1.692200e-01,-1.509900e-01,3.204100e-02,1.199800e+01
2.592000e-01,2.894900e-01,-1.517000e-01,3.204100e-02,1.248800e+01
5.604100e-01,7.143300e-01,-1.541900e-01,3.204100e-02,1.385900e+01
5.746000e-01,7.438200e-01,-1.543600e-01,3.204100e-02,1.450300e+01
5.882400e-01,7.719100e-01,-1.545300e-01,3.204100e-02,1.434500e+01
6.013400e-01,8.063700e-01,-1.547300e-01,3.204100e-02,1.336000e+01
5.565900e-01,8.646800e-01,-1.550700e-01,3.204100e-02,1.164400e+01
-9.167400e-01,6.155900e-01,-1.536100e-01,3.204100e-02,1.265300e+01
-9.232800e-01,6.024600e-01,-1.535300e-01,3.204100e-02,1.313700e+01
-9.489300e-01,5.015800e-01,-1.529400e-01,3.204100e-02,1.210500e+01
-1.016000e+00,7.258600e-01,-1.542600e-01,3.204100e-02,1.087500e+01
-1.010900e+00,7.094800e-01,-1.541600e-01,3.204100e-02,1.099500e+01
0,0,-1.500000e-01,6.408200e-02,9.687000e+00
3.890700e-01,5.759300e-01,-1.533800e-01,6.408200e-02,9.323700e+00
-8.976400e-01,5.200300e-01,-1.530500e-01,6.408200e-02,1.011500e+01
-9.134600e-01,6.776800e-01,-1.539700e-01,6.408200e-02,1.083800e+01
-9.489300e-01,7.327100e-01,-1.543000e-01,6.408200e-02,1.051900e+01
-1.746200e+00,3.024200e+00,-1.677300e-01,-1.089400e+00,1.007000e+01
-1.333600e+00,1.229900e+00,-1.572100e-01,-1.057400e+00,9.668700e+00
-1.773400e+00,3.006500e+00,-1.676300e-01,-1.057400e+00,1.018200e+01
1.489700e-01,2.691200e+00,-1.657800e-01,-9.612300e-01,1.038600e+01
1.293300e-01,2.728300e+00,-1.660000e-01,-9.612300e-01,1.070800e+01
1.309600e-01,2.754600e+00,-1.661500e-01,-9.612300e-01,1.006700e+01
-1.728700e+00,2.993900e+00,-1.675600e-01,-9.612300e-01,1.003400e+01
1.276900e-01,2.698200e+00,-1.658200e-01,-9.291900e-01,1.079700e+01
1.077700e-01,2.741900e+00,-1.660800e-01,-9.291900e-01,1.115300e+01
1.309600e-01,2.781800e+00,-1.663100e-01,-9.291900e-01,1.051500e+01
-1.631000e+00,3.006100e+00,-1.676300e-01,-9.291900e-01,9.954400e+00
-1.674700e+00,3.020900e+00,-1.677200e-01,-9.291900e-01,9.898400e+00
-6.940500e+00,8.828600e+00,-2.017700e-01,-9.291900e-01,1.007400e+01
-7.402600e+00,8.465700e+00,-1.996500e-01,-9.291900e-01,1.007700e+01
1.890800e-01,2.677100e+00,-1.657000e-01,-8.651100e-01,1.013300e+01
1.064100e-01,2.701500e+00,-1.658400e-01,-8.651100e-01,1.145800e+01
8.621700e-02,2.722600e+00,-1.659700e-01,-8.651100e-01,1.173300e+01
8.730800e-02,2.727500e+00,-1.660000e-01,-8.651100e-01,1.101600e+01
8.403400e-02,2.674600e+00,-1.656900e-01,-8.330700e-01,1.057200e+01
8.512600e-02,2.703100e+00,-1.658500e-01,-8.330700e-01,1.180700e+01
8.621700e-02,2.732600e+00,-1.660200e-01,-8.330700e-01,1.210000e+01
8.730800e-02,2.750800e+00,-1.661300e-01,-8.330700e-01,1.139100e+01
-7.643300e+00,8.220600e+00,-1.982100e-01,-8.330700e-01,1.032200e+01
-7.578900e+00,8.354300e+00,-1.989900e-01,-8.330700e-01,1.022600e+01
2.100900e-02,2.675400e+00,-1.656900e-01,-8.010300e-01,1.020300e+01
6.384400e-02,2.706500e+00,-1.658700e-01,-8.010300e-01,1.128700e+01
8.621700e-02,2.737300e+00,-1.660500e-01,-8.010300e-01,1.147300e+01
1.091400e-01,2.751200e+00,-1.661300e-01,-8.010300e-01,1.070500e+01
-9.134600e-01,1.648800e+00,-1.596700e-01,-4.806200e-01,9.760300e+00
-8.553500e-01,1.700000e+00,-1.599700e-01,-4.806200e-01,1.149200e+01
-8.556200e-01,1.728600e+00,-1.601400e-01,-4.806200e-01,1.244700e+01
-8.864500e-01,1.750700e+00,-1.602700e-01,-4.806200e-01,1.249600e+01
-9.178300e-01,1.775100e+00,-1.604100e-01,-4.806200e-01,1.177100e+01
-1.014100e+00,1.758400e+00,-1.603100e-01,-4.806200e-01,1.056000e+01
-8.398000e-01,1.681300e+00,-1.598600e-01,-4.485700e-01,1.066900e+01
-8.403400e-01,1.709100e+00,-1.600200e-01,-4.485700e-01,1.258500e+01
-8.556200e-01,1.732700e+00,-1.601600e-01,-4.485700e-01,1.348600e+01
-8.864500e-01,1.754400e+00,-1.602900e-01,-4.485700e-01,1.344900e+01
-9.178300e-01,1.777200e+00,-1.604200e-01,-4.485700e-01,1.258200e+01
-9.980400e-01,1.761200e+00,-1.603300e-01,-4.485700e-01,1.122100e+01
-1.096800e+00,1.664300e+00,-1.597600e-01,-4.485700e-01,1.026200e+01
4.329900e-01,4.994600e-01,-1.529300e-01,-4.165300e-01,9.484400e+00
4.452700e-01,5.078500e-01,-1.529800e-01,-4.165300e-01,9.799500e+00
-8.250600e-01,1.684800e+00,-1.598800e-01,-4.165300e-01,1.013500e+01
-8.403400e-01,1.702400e+00,-1.599800e-01,-4.165300e-01,1.189700e+01
-8.556200e-01,1.729900e+00,-1.601400e-01,-4.165300e-01,1.275000e+01
-8.709000e-01,1.764400e+00,-1.603500e-01,-4.165300e-01,1.267200e+01
-9.020000e-01,1.794800e+00,-1.605300e-01,-4.165300e-01,1.171700e+01
-9.175600e-01,1.829300e+00,-1.607300e-01,-4.165300e-01,1.028700e+01
-8.676300e-01,1.885900e+00,-1.610600e-01,-4.165300e-01,1.040000e+01
-9.653000e-01,1.866500e+00,-1.609500e-01,-4.165300e-01,1.069000e+01
-1.065700e+00,1.871500e+00,-1.609700e-01,-4.165300e-01,1.023100e+01
0,0,-1.500000e-01,-3.844900e-01,9.625300e+00
4.518200e-01,4.753300e-01,-1.527900e-01,-3.844900e-01,9.461500e+00
4.583700e-01,4.836000e-01,-1.528400e-01,-3.844900e-01,9.823000e+00
4.433600e-01,5.154100e-01,-1.530200e-01,-3.844900e-01,9.671100e+00
5.063900e-01,7.503400e-01,-1.544000e-01,-3.844900e-01,9.810100e+00
-8.403400e-01,1.672200e+00,-1.598100e-01,-3.844900e-01,1.010600e+01
-8.709000e-01,1.749100e+00,-1.602600e-01,-3.844900e-01,1.004800e+01
-9.003700e-01,1.862700e+00,-1.609200e-01,-3.844900e-01,1.010500e+01
-9.819400e-01,1.864600e+00,-1.609300e-01,-3.844900e-01,1.057500e+01
-1.065700e+00,1.868500e+00,-1.609600e-01,-3.844900e-01,1.025900e+01
4.714600e-01,2.945600e-01,-1.517300e-01,-3.524500e-01,1.003700e+01
4.327200e-01,6.400300e-01,-1.537500e-01,-3.524500e-01,9.969900e+00
4.788300e-01,5.995900e-01,-1.535200e-01,-3.524500e-01,1.039800e+01
5.347600e-01,5.273100e-01,-1.530900e-01,-3.524500e-01,1.001500e+01
-9.822200e-01,1.766400e+00,-1.603600e-01,-3.524500e-01,1.017800e+01
-1.031900e+00,1.814300e+00,-1.606400e-01,-3.524500e-01,1.048800e+01
-1.116500e+00,1.843600e+00,-1.608100e-01,-3.524500e-01,9.923600e+00
4.455400e-01,3.496200e-01,-1.520500e-01,-3.204100e-01,1.063700e+01
4.714600e-01,4.084300e-01,-1.524000e-01,-3.204100e-01,1.140900e+01
5.047500e-01,4.028100e-01,-1.523600e-01,-3.204100e-01,1.084300e+01
4.714600e-01,4.773900e-01,-1.528000e-01,-3.204100e-01,1.102900e+01
5.042100e-01,5.340800e-01,-1.531300e-01,-3.204100e-01,1.149400e+01
5.380400e-01,5.999700e-01,-1.535200e-01,-3.204100e-01,1.115100e+01
-1.048500e+00,1.839800e+00,-1.607900e-01,-3.204100e-01,9.927200e+00
0,0,-1.500000e-01,-2.883700e-01,9.459800e+00
4.714600e-01,4.318200e-01,-1.525300e-01,-2.883700e-01,1.049000e+01
4.911100e-01,4.615700e-01,-1.527100e-01,-2.883700e-01,1.034100e+01
4.346300e-01,1.722700e-01,-1.510100e-01,-2.883700e-01,1.077300e+01
4.660100e-01,3.669500e-01,-1.521500e-01,-2.883700e-01,1.128700e+01
5.143000e-01,3.891500e-01,-1.522800e-01,-2.883700e-01,1.060300e+01
-1.031900e+00,1.863700e+00,-1.609300e-01,-2.883700e-01,9.726200e+00
0,0,-1.500000e-01,-1.922500e-01,9.303100e+00
2.690200e-01,3.830700e-01,-1.522500e-01,-1.922500e-01,9.256800e+00
2.897500e-01,4.313100e-01,-1.525300e-01,-1.922500e-01,9.597000e+00
3.421400e-01,3.385300e-01,-1.519900e-01,-1.922500e-01,9.671000e+00
4.141700e-01,4.689000e-01,-1.527500e-01,-1.922500e-01,9.857900e+00
4.387200e-01,4.575500e-01,-1.526800e-01,-1.922500e-01,1.069200e+01
3.683300e-01,1.638000e-01,-1.509600e-01,-1.922500e-01,1.038400e+01
2.837500e-01,3.166100e-01,-1.518600e-01,-1.922500e-01,1.108900e+01
5.672300e-01,7.513400e-01,-1.544100e-01,-1.922500e-01,1.157600e+01
6.111600e-01,7.289100e-01,-1.542700e-01,-1.922500e-01,1.151200e+01
6.646300e-01,6.905000e-01,-1.540500e-01,-1.922500e-01,1.097400e+01
6.957400e-01,6.350100e-01,-1.537200e-01,-1.922500e-01,1.026000e+01
-1.443900e+00,2.286600e+00,-1.634100e-01,-1.922500e-01,9.784300e+00
0,0,-1.500000e-01,-1.602100e-01,9.817600e+00
3.094000e-01,3.403500e-01,-1.520000e-01,-1.602100e-01,9.833800e+00
3.473200e-01,3.250900e-01,-1.519100e-01,-1.602100e-01,9.993000e+00
3.656000e-01,2.094800e-01,-1.512300e-01,-1.602100e-01,9.361900e+00
4.204400e-01,5.928500e-01,-1.534800e-01,-1.602100e-01,9.971800e+00
4.321800e-01,4.909500e-01,-1.528800e-01,-1.602100e-01,1.025100e+01
5.893300e-01,7.307500e-01,-1.542900e-01,-1.602100e-01,1.296000e+01
6.111600e-01,7.426600e-01,-1.543600e-01,-1.602100e-01,1.319500e+01
6.250700e-01,7.522700e-01,-1.544100e-01,-1.602100e-01,1.260200e+01
6.220700e-01,7.283900e-01,-1.542700e-01,-1.602100e-01,1.135400e+01
6.174300e-01,6.893800e-01,-1.540400e-01,-1.602100e-01,1.024200e+01
0,0,-1.500000e-01,-1.281600e-01,9.600200e+00
3.525100e-01,9.699800e-02,-1.505700e-01,-1.281600e-01,9.456600e+00
5.047500e-01,7.113200e-01,-1.541700e-01,-1.281600e-01,1.007100e+01
5.462200e-01,7.221200e-01,-1.542300e-01,-1.281600e-01,1.206600e+01
5.819600e-01,7.271300e-01,-1.542600e-01,-1.281600e-01,1.332700e+01
6.111600e-01,7.390500e-01,-1.543300e-01,-1.281600e-01,1.354100e+01
6.329800e-01,7.452000e-01,-1.543700e-01,-1.281600e-01,1.281000e+01
5.729600e-01,6.912900e-01,-1.540500e-01,-1.281600e-01,1.125500e+01
6.005200e-01,6.579500e-01,-1.538600e-01,-1.281600e-01,1.032400e+01
0,0,-1.500000e-01,-9.612300e-02,1.045800e+01
5.456800e-04,3.431900e-02,-1.502000e-01,-9.612300e-02,9.949400e+00
4.190800e-01,6.311000e-01,-1.537000e-01,-9.612300e-02,9.929400e+00
4.297200e-01,6.553600e-01,-1.538400e-01,-9.612300e-02,1.026700e+01
5.746000e-01,6.982800e-01,-1.540900e-01,-9.612300e-02,1.168200e+01
5.967000e-01,7.176600e-01,-1.542100e-01,-9.612300e-02,1.283200e+01
6.340800e-01,7.279600e-01,-1.542700e-01,-9.612300e-02,1.272200e+01
3.797900e-01,3.924800e-01,-1.523000e-01,-9.612300e-02,1.154300e+01
5.156600e-01,7.346400e-01,-1.543100e-01,-9.612300e-02,1.094500e+01
6.005200e-01,8.451700e-01,-1.549600e-01,-9.612300e-02,1.032100e+01
0,0,-1.500000e-01,-6.408200e-02,1.027200e+01
-1.937200e-02,2.841100e-02,-1.501700e-01,-6.408200e-02,1.042900e+01
-2.182700e-02,2.961300e-02,-1.501700e-01,-6.408200e-02,9.655300e+00
4.068000e-01,4.500700e-01,-1.526400e-01,-6.408200e-02,9.220200e+00
4.141700e-01,5.100300e-01,-1.529900e-01,-6.408200e-02,9.416700e+00
4.190800e-01,6.657900e-01,-1.539000e-01,-6.408200e-02,9.377100e+00
4.024400e-01,6.003100e-01,-1.535200e-01,-6.408200e-02,9.736100e+00
3.121300e-01,1.657900e-01,-1.509700e-01,-6.408200e-02,1.036900e+01
6.040600e-01,7.215900e-01,-1.542300e-01,-6.408200e-02,1.108700e+01
5.882400e-01,7.199800e-01,-1.542200e-01,-6.408200e-02,1.104900e+01
5.143000e-01,6.566200e-01,-1.538500e-01,-6.408200e-02,1.105800e+01
8.758100e-01,2.402600e-01,-1.514100e-01,-6.408200e-02,1.028900e+01
0,0,-1.500000e-01,-3.204100e-02,1.577100e+01
-7.202900e-02,6.659200e-02,-1.503900e-01,-3.204100e-02,1.429400e+01
-1.227800e-02,1.304200e-01,-1.507600e-01,-3.204100e-02,1.346000e+01
-3.274100e-03,1.311700e-01,-1.507700e-01,-3.204100e-02,1.262800e+01
1.336900e-02,1.669000e-01,-1.509800e-01,-3.204100e-02,1.197500e+01
2.592000e-01,1.672600e-01,-1.509800e-01,-3.204100e-02,1.237700e+01
5.675000e-01,7.088100e-01,-1.541600e-01,-3.204100e-02,1.374900e+01
5.819600e-01,7.386000e-01,-1.543300e-01,-3.204100e-02,1.437100e+01
6.035200e-01,7.644900e-01,-1.544800e-01,-3.204100e-02,1.416800e+01
6.409000e-01,7.841800e-01,-1.546000e-01,-3.204100e-02,1.310600e+01
7.448500e-01,6.928900e-01,-1.540600e-01,-3.204100e-02,1.139200e+01
-1.020400e+00,5.707800e-01,-1.533500e-01,-3.204100e-02,1.043900e+01
-9.071900e-01,5.851400e-01,-1.534300e-01,-3.204100e-02,1.251200e+01
-9.134600e-01,5.549500e-01,-1.532500e-01,-3.204100e-02,1.306600e+01
-9.388400e-01,4.288500e-01,-1.525100e-01,-3.204100e-02,1.213100e+01
-1.026400e+00,7.072500e-01,-1.541500e-01,-3.204100e-02,1.115100e+01
-1.053400e+00,7.626300e-01,-1.544700e-01,-3.204100e-02,1.097100e+01
