0,0,-1.500000e-01,0,1.680100e+01
-4.092600e-02,2.009400e-02,-1.500800e-01,0,1.619300e+01
-7.312100e-02,6.460500e-02,-1.502400e-01,0,1.532200e+01
-1.091400e-02,1.353500e-01,-1.505100e-01,0,1.453000e+01
-4.911100e-03,1.372500e-01,-1.505200e-01,0,1.361000e+01
9.549300e-03,1.787200e-01,-1.506700e-01,0,1.302900e+01
5.456800e-01,6.540700e-01,-1.524700e-01,0,1.418200e+01
5.533200e-01,7.198900e-01,-1.527100e-01,0,1.596200e+01
5.598600e-01,7.453800e-01,-1.528100e-01,0,1.674300e+01
5.729600e-01,7.494200e-01,-1.528300e-01,0,1.663000e+01
5.776000e-01,7.426500e-01,-1.528000e-01,0,1.547900e+01
5.320300e-01,8.239700e-01,-1.531100e-01,0,1.340400e+01
6.258900e-01,8.595600e-01,-1.532400e-01,0,1.230800e+01
-7.792300e-01,7.259100e-01,-1.527400e-01,0,1.176000e+01
-1.002700e+00,6.023100e-01,-1.522700e-01,0,1.305700e+01
-9.724000e-01,5.368300e-01,-1.520200e-01,0,1.333800e+01
-1.005700e+00,7.695100e-01,-1.529000e-01,0,1.214300e+01
-1.021500e+00,7.908400e-01,-1.529800e-01,0,1.172700e+01
-1.047700e+00,8.623400e-01,-1.532500e-01,0,1.012700e+01
0,0,-1.500000e-01,3.204100e-02,1.578200e+01
-4.092600e-02,2.396800e-02,-1.500900e-01,3.204100e-02,1.518700e+01
-7.312100e-02,6.646900e-02,-1.502500e-01,3.204100e-02,1.431300e+01
-1.091400e-02,1.375900e-01,-1.505200e-01,3.204100e-02,1.352900e+01
-4.911100e-03,1.419600e-01,-1.505400e-01,3.204100e-02,1.264900e+01
7.639500e-03,1.823500e-01,-1.506900e-01,3.204100e-02,1.201900e+01
5.525000e-01,6.413100e-01,-1.524200e-01,3.204100e-02,1.309400e+01
5.533200e-01,7.198900e-01,-1.527100e-01,3.204100e-02,1.487300e+01
5.598600e-01,7.499100e-01,-1.528300e-01,3.204100e-02,1.560500e+01
5.806000e-01,7.533400e-01,-1.528400e-01,3.204100e-02,1.538200e+01
5.776000e-01,7.460600e-01,-1.528100e-01,3.204100e-02,1.383800e+01
5.320300e-01,8.636500e-01,-1.532600e-01,3.204100e-02,1.280200e+01
6.005200e-01,8.694800e-01,-1.532800e-01,3.204100e-02,1.201100e+01
-7.977800e-01,7.732500e-01,-1.529200e-01,3.204100e-02,1.094600e+01
-9.835800e-01,6.703000e-01,-1.525300e-01,3.204100e-02,1.202300e+01
-1.031300e+00,5.539800e-01,-1.520900e-01,3.204100e-02,1.204100e+01
-9.849500e-01,7.966900e-01,-1.530000e-01,3.204100e-02,1.158800e+01
-1.021500e+00,7.806300e-01,-1.529400e-01,3.204100e-02,1.088600e+01
0,0,-1.500000e-01,6.408200e-02,1.007500e+01
-3.410500e-02,6.586900e-03,-1.500200e-01,6.408200e-02,9.784400e+00
4.823800e-01,6.099400e-01,-1.523000e-01,6.408200e-02,9.679800e+00
5.009300e-01,7.059600e-01,-1.526600e-01,6.408200e-02,1.076400e+01
5.347600e-01,7.564400e-01,-1.528500e-01,6.408200e-02,1.159000e+01
5.617700e-01,7.959100e-01,-1.530000e-01,6.408200e-02,1.176800e+01
5.811500e-01,8.345600e-01,-1.531500e-01,6.408200e-02,1.122200e+01
-8.403400e-01,7.035100e-01,-1.526500e-01,6.408200e-02,1.026700e+01
-8.938200e-01,7.797600e-01,-1.529400e-01,6.408200e-02,1.066800e+01
-9.590300e-01,8.011900e-01,-1.530200e-01,6.408200e-02,1.033300e+01
-3.841300e+00,7.720000e+00,-1.791000e-01,-9.932700e-01,1.058000e+01
-4.059800e+00,7.649000e+00,-1.788400e-01,-9.932700e-01,1.041800e+01
-7.735000e-01,2.009500e+00,-1.575800e-01,-8.971500e-01,1.045700e+01
-7.857700e-01,2.067300e+00,-1.577900e-01,-8.971500e-01,1.199800e+01
-7.980500e-01,2.106200e+00,-1.579400e-01,-8.971500e-01,1.254700e+01
-8.103300e-01,2.144600e+00,-1.580900e-01,-8.971500e-01,1.210100e+01
-8.226100e-01,2.182500e+00,-1.582300e-01,-8.971500e-01,1.048100e+01
-4.030900e+00,4.499300e+00,-1.669600e-01,-8.971500e-01,1.005600e+01
-7.906900e-01,2.029400e+00,-1.576500e-01,-8.651100e-01,1.011300e+01
-7.857700e-01,2.081300e+00,-1.578500e-01,-8.651100e-01,1.161100e+01
-7.980500e-01,2.122400e+00,-1.580000e-01,-8.651100e-01,1.189400e+01
-7.923200e-01,2.164300e+00,-1.581600e-01,-8.651100e-01,1.120400e+01
-7.860500e-01,2.177600e+00,-1.582100e-01,-8.651100e-01,1.026400e+01
-7.333900e-01,1.960000e+00,-1.573900e-01,-8.330700e-01,1.059400e+01
-7.625800e-01,1.830200e+00,-1.569000e-01,-8.330700e-01,1.110000e+01
-1.638700e+00,1.602800e+00,-1.560400e-01,-8.330700e-01,1.126200e+01
-1.663500e+00,1.635200e+00,-1.561600e-01,-8.330700e-01,1.044300e+01
-1.554100e+00,1.594900e+00,-1.560100e-01,-8.010300e-01,1.080400e+01
-1.596100e+00,1.586900e+00,-1.559800e-01,-8.010300e-01,1.193400e+01
-1.620700e+00,1.619500e+00,-1.561100e-01,-8.010300e-01,1.209800e+01
-1.681800e+00,1.616400e+00,-1.560900e-01,-8.010300e-01,1.113400e+01
-1.571500e+00,1.526100e+00,-1.557500e-01,-7.689800e-01,1.097500e+01
-1.578400e+00,1.583000e+00,-1.559700e-01,-7.689800e-01,1.228200e+01
-1.602700e+00,1.622400e+00,-1.561200e-01,-7.689800e-01,1.247300e+01
-1.626900e+00,1.658000e+00,-1.562500e-01,-7.689800e-01,1.157600e+01
-1.536600e+00,1.487900e+00,-1.556100e-01,-7.369400e-01,1.053800e+01
-1.560600e+00,1.582500e+00,-1.559700e-01,-7.369400e-01,1.203900e+01
-1.584600e+00,1.631300e+00,-1.561500e-01,-7.369400e-01,1.236800e+01
-1.590400e+00,1.690200e+00,-1.563700e-01,-7.369400e-01,1.165000e+01
-1.542900e+00,1.566600e+00,-1.559100e-01,-7.049000e-01,1.110100e+01
-1.602700e+00,1.581000e+00,-1.559600e-01,-7.049000e-01,1.140700e+01
-1.626900e+00,1.629700e+00,-1.561400e-01,-7.049000e-01,1.074900e+01
-2.045500e+00,3.589000e+00,-1.635300e-01,-7.049000e-01,9.868200e+00
-1.046100e+00,1.565000e+00,-1.559000e-01,-6.728600e-01,9.911900e+00
-1.110500e+00,1.567100e+00,-1.559100e-01,-6.728600e-01,9.986400e+00
-2.013000e+00,3.635400e+00,-1.637100e-01,-6.728600e-01,1.023300e+01
-6.602700e-02,5.248000e-01,-1.519800e-01,-5.447000e-01,9.514200e+00
-6.902800e-02,5.766500e-01,-1.521700e-01,-5.447000e-01,9.840400e+00
-2.553800e+00,3.173000e+00,-1.619600e-01,-4.485700e-01,1.061800e+01
-2.575600e+00,3.205600e+00,-1.620800e-01,-4.485700e-01,1.119400e+01
-2.565000e+00,3.256700e+00,-1.622800e-01,-4.485700e-01,1.107500e+01
-2.586500e+00,3.297300e+00,-1.624300e-01,-4.485700e-01,1.068800e+01
-2.553800e+00,3.140600e+00,-1.618400e-01,-4.165300e-01,1.170300e+01
-2.575600e+00,3.207100e+00,-1.620900e-01,-4.165300e-01,1.231000e+01
-2.597400e+00,3.236100e+00,-1.622000e-01,-4.165300e-01,1.241100e+01
-2.586500e+00,3.292600e+00,-1.624100e-01,-4.165300e-01,1.217100e+01
-2.575000e+00,3.345000e+00,-1.626100e-01,-4.165300e-01,1.121700e+01
-2.585700e+00,3.130900e+00,-1.618000e-01,-3.844900e-01,1.110300e+01
-2.607800e+00,3.189200e+00,-1.620200e-01,-3.844900e-01,1.187700e+01
-2.597400e+00,3.242700e+00,-1.622200e-01,-3.844900e-01,1.224000e+01
-2.586500e+00,3.297300e+00,-1.624300e-01,-3.844900e-01,1.199300e+01
-2.575000e+00,3.343900e+00,-1.626100e-01,-3.844900e-01,1.083600e+01
-2.681500e+00,3.082800e+00,-1.616200e-01,-3.524500e-01,1.007900e+01
-2.672200e+00,3.136900e+00,-1.618300e-01,-3.524500e-01,1.121100e+01
-2.662400e+00,3.189300e+00,-1.620200e-01,-3.524500e-01,1.140500e+01
-2.684700e+00,3.211900e+00,-1.621100e-01,-3.524500e-01,1.062400e+01
-1.163100e+00,6.959200e+00,-1.762400e-01,-3.524500e-01,1.047000e+01
-1.224500e+00,7.006200e+00,-1.764100e-01,-3.524500e-01,1.054400e+01
-1.335800e+00,6.997900e+00,-1.763800e-01,-3.204100e-01,1.028600e+01
4.201700e-01,3.720300e-01,-1.514000e-01,-1.922500e-01,1.098500e+01
4.351800e-01,5.163500e-01,-1.519500e-01,-1.922500e-01,1.156300e+01
4.338100e-01,6.612000e-01,-1.524900e-01,-1.922500e-01,1.084000e+01
5.063900e-01,7.909400e-01,-1.529800e-01,-1.922500e-01,1.046000e+01
5.402200e-01,8.790000e-01,-1.533100e-01,-1.922500e-01,1.026500e+01
0,0,-1.500000e-01,-1.602100e-01,9.521300e+00
2.057200e-01,1.520400e-01,-1.505700e-01,-1.602100e-01,9.749200e+00
2.946700e-01,3.814400e-01,-1.514400e-01,-1.602100e-01,1.117800e+01
3.055800e-01,3.795300e-01,-1.514300e-01,-1.602100e-01,1.172400e+01
3.323200e-01,3.793100e-01,-1.514300e-01,-1.602100e-01,1.165900e+01
3.601500e-01,4.851600e-01,-1.518300e-01,-1.602100e-01,1.110400e+01
4.313600e-01,6.940400e-01,-1.526200e-01,-1.602100e-01,1.033900e+01
4.976600e-01,7.835600e-01,-1.529500e-01,-1.602100e-01,1.110400e+01
5.222100e-01,8.215300e-01,-1.531000e-01,-1.602100e-01,1.081900e+01
2.695600e-01,3.471600e-01,-1.513100e-01,-1.281600e-01,1.072500e+01
3.462300e-01,5.003200e-01,-1.518900e-01,-1.281600e-01,1.268600e+01
3.819700e-01,5.750900e-01,-1.521700e-01,-1.281600e-01,1.341000e+01
4.114400e-01,6.318900e-01,-1.523800e-01,-1.281600e-01,1.317400e+01
4.501800e-01,6.918700e-01,-1.526100e-01,-1.281600e-01,1.232700e+01
4.736500e-01,7.462100e-01,-1.528100e-01,-1.281600e-01,1.094500e+01
4.802000e-01,7.350200e-01,-1.527700e-01,-1.281600e-01,1.134100e+01
5.132100e-01,7.480700e-01,-1.528200e-01,-1.281600e-01,1.094300e+01
0,0,-1.500000e-01,-9.612300e-02,9.859600e+00
-3.328600e-02,1.051100e-02,-1.500400e-01,-9.612300e-02,9.512200e+00
3.050300e-01,1.183500e-01,-1.504500e-01,-9.612300e-02,1.055400e+01
3.609700e-01,4.984200e-01,-1.518800e-01,-9.612300e-02,1.258600e+01
4.048900e-01,6.413100e-01,-1.524200e-01,-9.612300e-02,1.379300e+01
4.510000e-01,7.098400e-01,-1.526800e-01,-9.612300e-02,1.407100e+01
4.992900e-01,7.602600e-01,-1.528700e-01,-9.612300e-02,1.347600e+01
5.328500e-01,7.833500e-01,-1.529500e-01,-9.612300e-02,1.240900e+01
5.325800e-01,7.695100e-01,-1.529000e-01,-9.612300e-02,1.215100e+01
5.582300e-01,8.235100e-01,-1.531000e-01,-9.612300e-02,1.198200e+01
6.122500e-01,8.828600e-01,-1.533300e-01,-9.612300e-02,1.105400e+01
0,0,-1.500000e-01,-6.408200e-02,9.755600e+00
5.462200e-01,7.175400e-01,-1.527100e-01,-6.408200e-02,1.114400e+01
5.598600e-01,7.236900e-01,-1.527300e-01,-6.408200e-02,1.267100e+01
5.653200e-01,7.100700e-01,-1.526800e-01,-6.408200e-02,1.302100e+01
5.143000e-01,7.764000e-01,-1.529300e-01,-6.408200e-02,1.341300e+01
5.238500e-01,8.001200e-01,-1.530200e-01,-6.408200e-02,1.282400e+01
5.074800e-01,7.591400e-01,-1.528600e-01,-6.408200e-02,1.182400e+01
5.413100e-01,8.003600e-01,-1.530200e-01,-6.408200e-02,1.270700e+01
5.672300e-01,8.496200e-01,-1.532000e-01,-6.408200e-02,1.271400e+01
6.029700e-01,9.044900e-01,-1.534100e-01,-6.408200e-02,1.177700e+01
0,0,-1.500000e-01,-3.204100e-02,1.578800e+01
-4.092600e-02,1.485300e-02,-1.500600e-01,-3.204100e-02,1.516400e+01
-7.312100e-02,6.287300e-02,-1.502400e-01,-3.204100e-02,1.429400e+01
-1.091400e-02,1.339000e-01,-1.505000e-01,-3.204100e-02,1.349700e+01
-3.274100e-03,1.364300e-01,-1.505100e-01,-3.204100e-02,1.263200e+01
9.549300e-03,1.735200e-01,-1.506500e-01,-3.204100e-02,1.203500e+01
5.456800e-01,6.541700e-01,-1.524700e-01,-3.204100e-02,1.323200e+01
5.533200e-01,7.199200e-01,-1.527100e-01,-3.204100e-02,1.505600e+01
5.598600e-01,7.434100e-01,-1.528000e-01,-3.204100e-02,1.589600e+01
5.653200e-01,7.462400e-01,-1.528100e-01,-3.204100e-02,1.589800e+01
5.696900e-01,7.405800e-01,-1.527900e-01,-3.204100e-02,1.504800e+01
5.565900e-01,7.896400e-01,-1.529800e-01,-3.204100e-02,1.359500e+01
5.238500e-01,7.978800e-01,-1.530100e-01,-3.204100e-02,1.194700e+01
5.312200e-01,8.144000e-01,-1.530700e-01,-3.204100e-02,1.205700e+01
5.380400e-01,7.275000e-01,-1.527400e-01,-3.204100e-02,1.076500e+01
-9.644800e-01,6.358800e-01,-1.524000e-01,-3.204100e-02,1.225900e+01
-9.429300e-01,5.799500e-01,-1.521900e-01,-3.204100e-02,1.272900e+01
-9.590300e-01,3.320200e-01,-1.512500e-01,-3.204100e-02,1.169500e+01
-1.016000e+00,7.800000e-01,-1.529400e-01,-3.204100e-02,1.051800e+01
-1.010900e+00,8.220800e-01,-1.531000e-01,-3.204100e-02,1.032800e+01
