0,0,-1.500000e-01,0,1.680000e+01
-4.092600e-02,1.517800e-02,-1.499700e-01,0,1.619100e+01
-7.312100e-02,6.414500e-02,-1.498500e-01,0,1.531500e+01
-1.227800e-02,1.328600e-01,-1.496900e-01,0,1.451900e+01
-4.911100e-03,1.324200e-01,-1.496900e-01,0,1.348200e+01
9.549300e-03,1.748900e-01,-1.496000e-01,0,1.301000e+01
5.525000e-01,6.642000e-01,-1.484700e-01,0,1.424100e+01
5.533200e-01,7.193100e-01,-1.483400e-01,0,1.588700e+01
5.598600e-01,7.446400e-01,-1.482800e-01,0,1.658300e+01
5.729600e-01,7.555900e-01,-1.482600e-01,0,1.639800e+01
5.934200e-01,7.575200e-01,-1.482500e-01,0,1.524700e+01
5.811500e-01,8.225600e-01,-1.481000e-01,0,1.304200e+01
-6.957400e-01,5.582900e-01,-1.487100e-01,0,1.193500e+01
-9.549300e-01,5.962900e-01,-1.486300e-01,0,1.335800e+01
-9.429300e-01,6.116300e-01,-1.485900e-01,0,1.405300e+01
-9.691200e-01,6.004500e-01,-1.486200e-01,0,1.338300e+01
-1.026400e+00,6.519800e-01,-1.485000e-01,0,1.205700e+01
-1.032100e+00,7.522700e-01,-1.482700e-01,0,1.183400e+01
-1.069500e+00,7.690800e-01,-1.482300e-01,0,1.052400e+01
0,0,-1.500000e-01,3.204100e-02,1.579400e+01
-4.092600e-02,2.093000e-02,-1.499500e-01,3.204100e-02,1.518100e+01
-7.312100e-02,6.521000e-02,-1.498500e-01,3.204100e-02,1.429700e+01
-1.227800e-02,1.345200e-01,-1.496900e-01,3.204100e-02,1.351400e+01
-4.911100e-03,1.337000e-01,-1.496900e-01,3.204100e-02,1.245800e+01
1.145900e-02,1.765700e-01,-1.495900e-01,3.204100e-02,1.197900e+01
5.525000e-01,6.700100e-01,-1.484600e-01,3.204100e-02,1.327400e+01
5.533200e-01,7.192100e-01,-1.483400e-01,3.204100e-02,1.485400e+01
5.598600e-01,7.458100e-01,-1.482800e-01,3.204100e-02,1.552500e+01
5.806000e-01,7.526100e-01,-1.482700e-01,3.204100e-02,1.528900e+01
5.934200e-01,7.577300e-01,-1.482500e-01,3.204100e-02,1.395700e+01
5.484000e-01,8.597800e-01,-1.480200e-01,3.204100e-02,1.145900e+01
-8.998200e-01,5.806800e-01,-1.486600e-01,3.204100e-02,1.180200e+01
-8.976400e-01,6.377500e-01,-1.485300e-01,3.204100e-02,1.363400e+01
-9.232800e-01,6.720000e-01,-1.484500e-01,3.204100e-02,1.414600e+01
-9.590300e-01,6.889200e-01,-1.484100e-01,3.204100e-02,1.350400e+01
-1.036800e+00,5.703900e-01,-1.486900e-01,3.204100e-02,1.134400e+01
-1.053400e+00,7.389600e-01,-1.483000e-01,3.204100e-02,1.084800e+01
-1.058600e+00,7.779400e-01,-1.482100e-01,3.204100e-02,9.974200e+00
4.649200e-01,6.091600e-01,-1.486000e-01,6.408200e-02,9.781800e+00
4.501800e-01,6.347500e-01,-1.485400e-01,6.408200e-02,9.859700e+00
5.576800e-01,7.794200e-01,-1.482000e-01,6.408200e-02,1.068500e+01
6.250700e-01,7.795900e-01,-1.482000e-01,6.408200e-02,1.116200e+01
6.384400e-01,7.642700e-01,-1.482400e-01,6.408200e-02,1.096000e+01
-8.348900e-01,7.043700e-01,-1.483800e-01,6.408200e-02,1.133300e+01
-8.689900e-01,7.211000e-01,-1.483400e-01,6.408200e-02,1.269300e+01
-9.036400e-01,7.320200e-01,-1.483100e-01,6.408200e-02,1.304200e+01
-9.388400e-01,7.437200e-01,-1.482900e-01,6.408200e-02,1.243400e+01
-9.434700e-01,7.967200e-01,-1.481600e-01,6.408200e-02,1.072900e+01
4.788300e-01,6.838000e-01,-1.484200e-01,9.612300e-02,1.030900e+01
4.660100e-01,7.006700e-01,-1.483900e-01,9.612300e-02,1.100600e+01
4.589100e-01,7.412400e-01,-1.482900e-01,9.612300e-02,1.075300e+01
-8.403400e-01,7.415400e-01,-1.482900e-01,9.612300e-02,1.002100e+01
-8.840000e-01,7.591900e-01,-1.482500e-01,9.612300e-02,1.072900e+01
-9.287400e-01,7.506600e-01,-1.482700e-01,9.612300e-02,1.049900e+01
4.570000e-01,5.408800e-01,-1.487500e-01,1.281600e-01,9.682200e+00
4.752800e-01,6.117000e-01,-1.485900e-01,1.281600e-01,1.002500e+01
4.862000e-01,6.693900e-01,-1.484600e-01,1.281600e-01,1.046100e+01
5.042100e-01,7.129700e-01,-1.483600e-01,1.281600e-01,1.067500e+01
5.222100e-01,7.655100e-01,-1.482400e-01,1.281600e-01,1.041900e+01
-2.033200e+00,1.965700e+00,-1.454700e-01,-1.089400e+00,1.046300e+01
-2.147800e+00,1.889200e+00,-1.456500e-01,-1.089400e+00,1.134300e+01
-2.241900e+00,1.812000e+00,-1.458300e-01,-1.089400e+00,1.105400e+01
-2.077400e+00,1.913700e+00,-1.455900e-01,-1.057400e+00,1.122300e+01
-2.170200e+00,1.861500e+00,-1.457100e-01,-1.057400e+00,1.179300e+01
-2.219300e+00,1.852800e+00,-1.457300e-01,-1.057400e+00,1.113700e+01
-7.983200e-01,5.310700e+00,-1.377700e-01,-1.057400e+00,9.973500e+00
-9.303800e-01,5.331100e+00,-1.377200e-01,-1.057400e+00,1.021900e+01
-9.363800e-01,5.360900e+00,-1.376500e-01,-1.057400e+00,1.019700e+01
-2.165800e+00,1.815000e+00,-1.458200e-01,-1.025300e+00,1.118100e+01
-2.214900e+00,1.814900e+00,-1.458200e-01,-1.025300e+00,1.194300e+01
-2.264600e+00,1.809100e+00,-1.458300e-01,-1.025300e+00,1.174700e+01
-2.314800e+00,1.801300e+00,-1.458500e-01,-1.025300e+00,1.068200e+01
-7.931400e-01,5.284000e+00,-1.378300e-01,-1.025300e+00,1.031300e+01
-7.983200e-01,5.318500e+00,-1.377500e-01,-1.025300e+00,1.169900e+01
-8.035100e-01,5.353000e+00,-1.376700e-01,-1.025300e+00,1.222500e+01
-8.512600e-01,5.380900e+00,-1.376000e-01,-1.025300e+00,1.189900e+01
-9.423800e-01,5.400300e+00,-1.375600e-01,-1.025300e+00,1.065500e+01
-2.187900e+00,1.779800e+00,-1.459000e-01,-9.932700e-01,1.082800e+01
-2.214900e+00,1.813500e+00,-1.458200e-01,-9.932700e-01,1.171100e+01
-2.264600e+00,1.808900e+00,-1.458300e-01,-9.932700e-01,1.170200e+01
-2.383500e+00,1.706300e+00,-1.460700e-01,-9.932700e-01,1.081800e+01
-7.096500e-01,5.294200e+00,-1.378000e-01,-9.932700e-01,1.037800e+01
-7.563100e-01,5.322600e+00,-1.377400e-01,-9.932700e-01,1.184100e+01
-8.035100e-01,5.352300e+00,-1.376700e-01,-9.932700e-01,1.244400e+01
-8.938200e-01,5.374200e+00,-1.376200e-01,-9.932700e-01,1.212700e+01
-1.113700e+00,5.368400e+00,-1.376300e-01,-9.932700e-01,1.082200e+01
-7.563100e-01,5.322600e+00,-1.377400e-01,-9.612300e-01,1.068400e+01
-8.035100e-01,5.352000e+00,-1.376700e-01,-9.612300e-01,1.158300e+01
-8.938200e-01,5.372700e+00,-1.376200e-01,-9.612300e-01,1.141700e+01
-1.327900e+00,5.317600e+00,-1.377500e-01,-9.612300e-01,1.013300e+01
-2.304400e+00,1.700100e+00,-1.460800e-01,-9.291900e-01,1.067900e+01
-2.355100e+00,1.686500e+00,-1.461100e-01,-9.291900e-01,1.095500e+01
-2.360600e+00,1.727400e+00,-1.460200e-01,-9.291900e-01,1.034500e+01
-2.962200e+00,7.502400e+00,-1.327200e-01,-9.291900e-01,1.027100e+01
-2.848400e+00,7.570500e+00,-1.325600e-01,-9.291900e-01,1.037300e+01
0,0,-1.500000e-01,-8.971500e-01,9.430900e+00
-2.332500e+00,1.720900e+00,-1.460400e-01,-8.971500e-01,1.051800e+01
-2.291800e+00,1.826000e+00,-1.457900e-01,-8.971500e-01,1.042300e+01
-2.064000e+00,2.029600e+00,-1.453200e-01,-8.971500e-01,9.823900e+00
-8.403400e-01,5.278900e+00,-1.378400e-01,-8.971500e-01,1.022600e+01
-8.035100e-01,5.347700e+00,-1.376800e-01,-8.971500e-01,1.097100e+01
-8.086900e-01,5.375800e+00,-1.376200e-01,-8.971500e-01,1.079800e+01
-2.899200e+00,7.526300e+00,-1.326600e-01,-8.971500e-01,1.026100e+01
-2.785100e+00,7.594600e+00,-1.325000e-01,-8.971500e-01,1.062100e+01
-2.341000e-01,2.661500e+00,-1.438700e-01,-8.651100e-01,9.881900e+00
-2.087200e+00,2.048800e+00,-1.452800e-01,-8.651100e-01,1.022600e+01
-8.403400e-01,5.221700e+00,-1.379700e-01,-8.651100e-01,1.003200e+01
-7.612200e-01,5.357400e+00,-1.376600e-01,-8.651100e-01,1.101800e+01
-7.661300e-01,5.393900e+00,-1.375700e-01,-8.651100e-01,1.112500e+01
-6.853700e-01,5.439500e+00,-1.374700e-01,-8.651100e-01,1.020900e+01
-7.189300e-01,5.344200e+00,-1.376900e-01,-8.330700e-01,1.083300e+01
-8.512600e-01,5.366300e+00,-1.376400e-01,-8.330700e-01,1.095000e+01
-7.121100e+00,7.643500e+00,-1.323900e-01,-8.330700e-01,1.042200e+01
-7.653100e-01,1.584800e+00,-1.463500e-01,-8.010300e-01,1.004200e+01
-2.320500e+00,1.435600e+00,-1.466900e-01,-8.010300e-01,1.020600e+01
-7.121100e+00,7.623000e+00,-1.324400e-01,-8.010300e-01,1.034200e+01
-7.235700e-01,1.621800e+00,-1.462600e-01,-7.689800e-01,1.004300e+01
-7.377500e-01,1.652500e+00,-1.461900e-01,-7.689800e-01,9.873500e+00
-2.276300e+00,1.610800e+00,-1.462900e-01,-7.689800e-01,1.053700e+01
-2.259600e+00,1.678500e+00,-1.461300e-01,-7.689800e-01,1.004400e+01
-7.661300e-01,5.389900e+00,-1.375800e-01,-7.689800e-01,1.005900e+01
-2.946700e-01,6.973700e-01,-1.483900e-01,-7.369400e-01,9.661700e+00
-2.933000e-01,7.646900e-01,-1.482400e-01,-7.369400e-01,1.078700e+01
-2.908500e-01,8.087800e-01,-1.481400e-01,-7.369400e-01,1.079300e+01
-2.873000e-01,8.612600e-01,-1.480200e-01,-7.369400e-01,9.797400e+00
-6.957400e-01,1.609500e+00,-1.462900e-01,-7.369400e-01,9.652300e+00
-7.661300e-01,1.577300e+00,-1.463700e-01,-7.369400e-01,9.648000e+00
-2.121600e+00,1.870600e+00,-1.456900e-01,-7.369400e-01,1.048500e+01
-2.103000e+00,1.937700e+00,-1.455400e-01,-7.369400e-01,1.019400e+01
-8.458000e-01,5.344600e+00,-1.376900e-01,-7.369400e-01,1.005000e+01
-8.938200e-01,5.367200e+00,-1.376300e-01,-7.369400e-01,1.012800e+01
-3.012100e-01,7.116100e-01,-1.483600e-01,-7.049000e-01,1.033100e+01
-2.933000e-01,7.599400e-01,-1.482500e-01,-7.049000e-01,1.146700e+01
-2.979400e-01,7.970300e-01,-1.481600e-01,-7.049000e-01,1.150300e+01
-2.946700e-01,8.463100e-01,-1.480500e-01,-7.049000e-01,1.040800e+01
-3.012100e-01,6.995200e-01,-1.483900e-01,-6.728600e-01,1.024800e+01
-3.001200e-01,7.511400e-01,-1.482700e-01,-6.728600e-01,1.132300e+01
-3.050300e-01,7.916600e-01,-1.481800e-01,-6.728600e-01,1.133200e+01
-3.167700e-01,8.356300e-01,-1.480700e-01,-6.728600e-01,1.000400e+01
-3.012100e-01,7.050400e-01,-1.483800e-01,-6.408200e-01,9.613700e+00
-2.933000e-01,7.614600e-01,-1.482500e-01,-6.408200e-01,1.075200e+01
-2.979400e-01,8.029000e-01,-1.481500e-01,-6.408200e-01,1.070600e+01
-4.845600e-01,1.136100e+00,-1.473800e-01,-6.408200e-01,1.104400e+01
-5.287600e-01,1.142500e+00,-1.473700e-01,-6.408200e-01,1.095900e+01
-5.746000e-01,1.107600e+00,-1.474500e-01,-6.408200e-01,9.868100e+00
-2.979400e-01,8.330500e-01,-1.480800e-01,-6.087800e-01,9.497100e+00
-4.420000e-01,1.087100e+00,-1.475000e-01,-6.087800e-01,1.019800e+01
-4.744700e-01,1.132600e+00,-1.473900e-01,-6.087800e-01,1.117900e+01
-4.976600e-01,1.152600e+00,-1.473400e-01,-6.087800e-01,1.117000e+01
-5.213900e-01,1.116900e+00,-1.474300e-01,-6.087800e-01,1.025800e+01
-2.598200e+00,2.598300e+00,-1.440100e-01,-4.806200e-01,1.014400e+01
-2.563600e+00,2.749100e+00,-1.436700e-01,-4.806200e-01,1.120700e+01
-2.587300e+00,2.781600e+00,-1.435900e-01,-4.806200e-01,1.149700e+01
-2.671100e+00,2.760100e+00,-1.436400e-01,-4.806200e-01,1.086300e+01
-2.452300e+00,2.765800e+00,-1.436300e-01,-4.485700e-01,1.160500e+01
-2.504700e+00,2.800900e+00,-1.435500e-01,-4.485700e-01,1.293900e+01
-2.527800e+00,2.838200e+00,-1.434600e-01,-4.485700e-01,1.330500e+01
-2.581000e+00,2.845000e+00,-1.434500e-01,-4.485700e-01,1.274500e+01
-2.665100e+00,2.801200e+00,-1.435500e-01,-4.485700e-01,1.107700e+01
4.327200e-01,5.522600e-01,-1.487300e-01,-4.165300e-01,9.272300e+00
-2.452300e+00,2.771500e+00,-1.436200e-01,-4.165300e-01,1.167100e+01
-2.475200e+00,2.828400e+00,-1.434800e-01,-4.165300e-01,1.304700e+01
-2.527800e+00,2.840300e+00,-1.434600e-01,-4.165300e-01,1.342300e+01
-2.551000e+00,2.872200e+00,-1.433800e-01,-4.165300e-01,1.282200e+01
-2.634800e+00,2.799800e+00,-1.435500e-01,-4.165300e-01,1.070400e+01
4.114400e-01,5.527700e-01,-1.487300e-01,-3.844900e-01,9.262800e+00
-2.445700e+00,2.832300e+00,-1.434700e-01,-3.844900e-01,1.120100e+01
-2.498100e+00,2.862700e+00,-1.434000e-01,-3.844900e-01,1.167700e+01
-2.521000e+00,2.898600e+00,-1.433200e-01,-3.844900e-01,1.113300e+01
-1.111500e+00,6.661500e+00,-1.346500e-01,-3.844900e-01,1.069600e+01
-1.223700e+00,6.684000e+00,-1.346000e-01,-3.844900e-01,1.124800e+01
-1.230000e+00,6.730600e+00,-1.344900e-01,-3.844900e-01,1.084000e+01
3.830600e-01,4.678900e-01,-1.489200e-01,-3.524500e-01,9.480000e+00
4.346300e-01,5.838500e-01,-1.486500e-01,-3.524500e-01,9.560100e+00
-1.164500e+00,6.634100e+00,-1.347200e-01,-3.524500e-01,1.018000e+01
-1.276900e+00,6.669100e+00,-1.346400e-01,-3.524500e-01,1.073100e+01
-1.283400e+00,6.717100e+00,-1.345200e-01,-3.524500e-01,1.031100e+01
0,0,-1.500000e-01,-9.612300e-02,9.684400e+00
-9.822200e-02,4.687300e-01,-1.489200e-01,-9.612300e-02,9.765500e+00
-1.088600e-01,5.208000e-01,-1.488000e-01,-9.612300e-02,9.651600e+00
4.518200e-01,5.856700e-01,-1.486500e-01,-9.612300e-02,9.841000e+00
4.911100e-01,6.165600e-01,-1.485800e-01,-9.612300e-02,1.051400e+01
5.249400e-01,6.446300e-01,-1.485100e-01,-9.612300e-02,1.019100e+01
0,0,-1.500000e-01,-6.408200e-02,9.466900e+00
-7.857700e-02,5.321900e-01,-1.487700e-01,-6.408200e-02,9.589400e+00
-9.849500e-02,5.464100e-01,-1.487400e-01,-6.408200e-02,9.666000e+00
4.842900e-01,5.909100e-01,-1.486400e-01,-6.408200e-02,1.017200e+01
4.894700e-01,5.432900e-01,-1.487500e-01,-6.408200e-02,1.013600e+01
0,0,-1.500000e-01,-3.204100e-02,1.577100e+01
-7.312100e-02,6.120800e-02,-1.498600e-01,-3.204100e-02,1.429900e+01
-1.227800e-02,1.311000e-01,-1.497000e-01,-3.204100e-02,1.350700e+01
-4.911100e-03,1.292900e-01,-1.497000e-01,-3.204100e-02,1.248800e+01
9.549300e-03,1.710600e-01,-1.496100e-01,-3.204100e-02,1.202200e+01
5.593200e-01,6.576200e-01,-1.484800e-01,-3.204100e-02,1.321900e+01
5.533200e-01,7.192700e-01,-1.483400e-01,-3.204100e-02,1.489700e+01
5.672300e-01,7.386900e-01,-1.483000e-01,-3.204100e-02,1.560700e+01
5.806000e-01,7.490200e-01,-1.482700e-01,-3.204100e-02,1.543300e+01
5.934200e-01,7.581400e-01,-1.482500e-01,-3.204100e-02,1.428500e+01
5.893300e-01,8.169800e-01,-1.481200e-01,-3.204100e-02,1.196800e+01
-7.514000e-01,7.079300e-01,-1.483700e-01,-3.204100e-02,1.107300e+01
-9.931300e-01,5.934600e-01,-1.486300e-01,-3.204100e-02,1.197400e+01
-9.527500e-01,5.847600e-01,-1.486500e-01,-3.204100e-02,1.261100e+01
-9.691200e-01,5.423200e-01,-1.487500e-01,-3.204100e-02,1.185700e+01
-1.016000e+00,6.749600e-01,-1.484400e-01,-3.204100e-02,1.113100e+01
-1.032100e+00,6.668100e-01,-1.484600e-01,-3.204100e-02,1.072400e+01
