0,0,-1.500000e-01,0,1.679700e+01
-4.092600e-02,2.157400e-02,-1.501400e-01,0,1.618100e+01
-7.312100e-02,6.542000e-02,-1.504200e-01,0,1.531700e+01
-1.091400e-02,1.349600e-01,-1.508800e-01,0,1.451400e+01
-4.911100e-03,1.354500e-01,-1.508800e-01,0,1.366300e+01
9.549300e-03,1.742600e-01,-1.511300e-01,0,1.304800e+01
5.525000e-01,6.567500e-01,-1.542600e-01,0,1.417300e+01
5.533200e-01,7.192900e-01,-1.546700e-01,0,1.588100e+01
5.598600e-01,7.420400e-01,-1.548200e-01,0,1.660900e+01
5.729600e-01,7.493900e-01,-1.548700e-01,0,1.649900e+01
5.776000e-01,7.631600e-01,-1.549500e-01,0,1.554600e+01
5.729600e-01,8.014900e-01,-1.552000e-01,0,1.352300e+01
-7.514000e-01,7.880200e-01,-1.551200e-01,0,1.167000e+01
-9.549300e-01,5.948700e-01,-1.538600e-01,0,1.321600e+01
-9.331100e-01,5.208300e-01,-1.533800e-01,0,1.371300e+01
-9.489300e-01,2.527300e-01,-1.516400e-01,0,1.282700e+01
-1.005700e+00,7.917000e-01,-1.551400e-01,0,1.223800e+01
-1.032100e+00,7.693600e-01,-1.550000e-01,0,1.188700e+01
-1.058600e+00,7.623400e-01,-1.549500e-01,0,1.038800e+01
0,0,-1.500000e-01,3.204100e-02,1.579200e+01
-4.092600e-02,2.476800e-02,-1.501600e-01,3.204100e-02,1.517400e+01
-7.312100e-02,6.774300e-02,-1.504400e-01,3.204100e-02,1.431500e+01
-1.227800e-02,1.337500e-01,-1.508700e-01,3.204100e-02,1.350900e+01
-4.911100e-03,1.347100e-01,-1.508700e-01,3.204100e-02,1.262400e+01
9.549300e-03,1.787700e-01,-1.511600e-01,3.204100e-02,1.200700e+01
5.525000e-01,6.499300e-01,-1.542200e-01,3.204100e-02,1.314300e+01
5.533200e-01,7.198900e-01,-1.546700e-01,3.204100e-02,1.485800e+01
5.598600e-01,7.479000e-01,-1.548600e-01,3.204100e-02,1.554500e+01
5.729600e-01,7.600100e-01,-1.549300e-01,3.204100e-02,1.537800e+01
5.776000e-01,7.757500e-01,-1.550400e-01,3.204100e-02,1.437400e+01
5.729600e-01,8.194200e-01,-1.553200e-01,3.204100e-02,1.234000e+01
-7.792300e-01,7.084900e-01,-1.546000e-01,3.204100e-02,1.093400e+01
-9.835800e-01,6.285000e-01,-1.540800e-01,3.204100e-02,1.213300e+01
-9.429300e-01,5.707900e-01,-1.537100e-01,3.204100e-02,1.247200e+01
-9.745800e-01,8.448000e-01,-1.554900e-01,3.204100e-02,1.132900e+01
-1.010900e+00,7.996600e-01,-1.551900e-01,3.204100e-02,1.085300e+01
0,0,-1.500000e-01,6.408200e-02,1.015200e+01
1.637000e-03,3.472000e-02,-1.502300e-01,6.408200e-02,9.696800e+00
5.320300e-01,6.854500e-01,-1.544500e-01,6.408200e-02,1.116700e+01
5.304000e-01,6.843300e-01,-1.544400e-01,6.408200e-02,1.249400e+01
5.500400e-01,6.720300e-01,-1.543600e-01,6.408200e-02,1.282500e+01
5.776000e-01,6.532600e-01,-1.542400e-01,6.408200e-02,1.223900e+01
6.057000e-01,6.531900e-01,-1.542400e-01,6.408200e-02,1.080400e+01
-8.594400e-01,5.099400e-01,-1.533100e-01,6.408200e-02,9.986800e+00
-9.036400e-01,3.943800e-01,-1.525600e-01,6.408200e-02,1.061200e+01
-9.893100e-01,3.252300e-01,-1.521100e-01,6.408200e-02,1.010200e+01
0,0,-1.500000e-01,9.612300e-02,1.051300e+01
-2.728400e-04,3.488900e-02,-1.502300e-01,9.612300e-02,9.815100e+00
5.604100e-01,7.036900e-01,-1.545700e-01,9.612300e-02,1.121600e+01
5.672300e-01,7.218800e-01,-1.546900e-01,9.612300e-02,1.233500e+01
5.729600e-01,7.247800e-01,-1.547100e-01,9.612300e-02,1.263100e+01
5.855100e-01,7.292200e-01,-1.547300e-01,9.612300e-02,1.213300e+01
5.975200e-01,7.561300e-01,-1.549100e-01,9.612300e-02,1.080700e+01
-1.233200e+00,3.748400e+00,-1.743400e-01,-1.025300e+00,1.043100e+01
-1.368600e+00,3.738400e+00,-1.742700e-01,-1.025300e+00,1.038700e+01
-1.375100e+00,3.659600e+00,-1.737600e-01,-9.932700e-01,1.047000e+01
-1.387400e+00,3.694100e+00,-1.739800e-01,-9.932700e-01,1.128900e+01
-1.430800e+00,3.715000e+00,-1.741200e-01,-9.932700e-01,1.120500e+01
-1.537400e+00,3.708500e+00,-1.740800e-01,-9.932700e-01,1.026200e+01
-2.738800e+00,7.884500e+00,-2.011900e-01,-9.932700e-01,1.050500e+01
-2.815700e+00,7.890600e+00,-2.012300e-01,-9.932700e-01,1.079100e+01
-2.893200e+00,7.897600e+00,-2.012800e-01,-9.932700e-01,1.027100e+01
-2.773400e+00,2.502400e+00,-1.662500e-01,-9.612300e-01,1.049200e+01
-1.436200e+00,3.636300e+00,-1.736100e-01,-9.612300e-01,1.047400e+01
-1.449000e+00,3.667000e+00,-1.738100e-01,-9.612300e-01,1.102100e+01
-1.493000e+00,3.684700e+00,-1.739200e-01,-9.612300e-01,1.076400e+01
-2.934400e+00,7.803400e+00,-2.006600e-01,-9.612300e-01,1.075300e+01
-2.881200e+00,7.865500e+00,-2.010700e-01,-9.612300e-01,1.109600e+01
-2.827400e+00,7.925300e+00,-2.014600e-01,-9.612300e-01,1.061600e+01
-2.776400e+00,2.447100e+00,-1.658900e-01,-9.291900e-01,1.087900e+01
-2.831800e+00,2.437000e+00,-1.658200e-01,-9.291900e-01,1.145800e+01
-2.887700e+00,2.423400e+00,-1.657300e-01,-9.291900e-01,1.106500e+01
-1.466800e+00,3.625100e+00,-1.735400e-01,-9.291900e-01,1.044300e+01
-1.387400e+00,3.692000e+00,-1.739700e-01,-9.291900e-01,1.040400e+01
-3.178000e+00,7.066800e+00,-1.958800e-01,-9.291900e-01,1.049300e+01
-3.315000e+00,7.096000e+00,-1.960700e-01,-9.291900e-01,1.049900e+01
-3.514700e+00,7.050800e+00,-1.957800e-01,-9.291900e-01,1.035700e+01
-3.012100e+00,7.707400e+00,-2.000400e-01,-9.291900e-01,1.022100e+01
-1.145900e+00,1.217400e+00,-1.579000e-01,-8.971500e-01,1.002300e+01
-2.933600e+00,7.239000e+00,-1.970000e-01,-8.971500e-01,1.021300e+01
-3.437800e+00,7.063600e+00,-1.958600e-01,-8.971500e-01,1.014100e+01
-3.576400e+00,7.035100e+00,-1.956800e-01,-8.971500e-01,1.045400e+01
-3.654100e+00,7.027300e+00,-1.956300e-01,-8.971500e-01,1.017700e+01
-1.163100e+00,1.127300e+00,-1.573200e-01,-8.651100e-01,1.022700e+01
-1.200500e+00,1.146000e+00,-1.574400e-01,-8.651100e-01,1.095100e+01
-1.252300e+00,1.154800e+00,-1.575000e-01,-8.651100e-01,1.071300e+01
-1.357900e+00,2.399300e+00,-1.655800e-01,-8.651100e-01,1.071300e+01
-1.396900e+00,2.419600e+00,-1.657100e-01,-8.651100e-01,1.074000e+01
-2.773400e+00,2.447200e+00,-1.658900e-01,-8.651100e-01,1.026400e+01
-2.799300e+00,2.507500e+00,-1.662800e-01,-8.651100e-01,1.024900e+01
-5.128000e+00,3.559000e+00,-1.731100e-01,-8.651100e-01,1.001900e+01
-2.073600e-01,1.284200e+00,-1.583400e-01,-8.330700e-01,9.862600e+00
-2.128100e-01,1.302300e+00,-1.584600e-01,-8.330700e-01,1.030500e+01
-2.619200e-01,1.303900e+00,-1.584700e-01,-8.330700e-01,1.028300e+01
5.156600e-02,2.199500e+00,-1.642800e-01,-8.330700e-01,1.004000e+01
-1.702500e+00,1.473700e+00,-1.595700e-01,-8.330700e-01,9.934900e+00
-1.314800e+00,2.422800e+00,-1.657300e-01,-8.330700e-01,1.036800e+01
-1.309600e+00,2.467900e+00,-1.660200e-01,-8.330700e-01,1.046900e+01
-2.256900e+00,2.074000e+00,-1.634700e-01,-8.330700e-01,1.034500e+01
-2.569000e+00,2.496200e+00,-1.662100e-01,-8.330700e-01,1.070300e+01
-2.534100e+00,2.723300e+00,-1.676800e-01,-8.330700e-01,1.109000e+01
-2.617100e+00,2.757200e+00,-1.679000e-01,-8.330700e-01,1.065900e+01
-5.323300e+00,3.170500e+00,-1.705900e-01,-8.330700e-01,9.837000e+00
-4.022700e+00,5.450800e+00,-1.853900e-01,-8.330700e-01,1.018200e+01
-4.043500e+00,5.463300e+00,-1.854700e-01,-8.330700e-01,9.912100e+00
-2.234500e-01,1.297000e+00,-1.584200e-01,-8.010300e-01,1.006000e+01
-1.418800e-01,1.361600e+00,-1.588400e-01,-8.010300e-01,1.005800e+01
-1.641400e+00,1.474300e+00,-1.595700e-01,-8.010300e-01,1.017500e+01
-1.649300e+00,1.517700e+00,-1.598500e-01,-8.010300e-01,1.056700e+01
-1.674700e+00,1.545400e+00,-1.600300e-01,-8.010300e-01,1.026600e+01
-1.222300e+00,2.419000e+00,-1.657100e-01,-8.010300e-01,1.031300e+01
-1.989000e+00,1.966100e+00,-1.627600e-01,-8.010300e-01,1.070400e+01
-1.901700e+00,2.105400e+00,-1.636700e-01,-8.010300e-01,1.141400e+01
-1.924900e+00,2.128800e+00,-1.638200e-01,-8.010300e-01,1.094500e+01
-2.304900e+00,2.013200e+00,-1.630700e-01,-8.010300e-01,1.095200e+01
-2.306800e+00,2.062400e+00,-1.633900e-01,-8.010300e-01,1.056100e+01
-2.393900e+00,2.738900e+00,-1.677800e-01,-8.010300e-01,1.026100e+01
-2.475200e+00,2.810600e+00,-1.682500e-01,-8.010300e-01,1.132600e+01
-2.557600e+00,2.806400e+00,-1.682200e-01,-8.010300e-01,1.086500e+01
-4.022700e+00,5.451600e+00,-1.854000e-01,-8.010300e-01,1.048400e+01
-3.883900e+00,5.593900e+00,-1.863200e-01,-8.010300e-01,1.015500e+01
-1.276900e-01,1.334100e+00,-1.586600e-01,-7.689800e-01,9.810800e+00
-2.619200e-01,1.334700e+00,-1.586700e-01,-7.689800e-01,9.951200e+00
6.711800e-02,1.430000e+00,-1.592800e-01,-7.689800e-01,9.984800e+00
1.145900e-02,1.452200e+00,-1.594300e-01,-7.689800e-01,1.142200e+01
0,1.475200e+00,-1.595800e-01,-7.689800e-01,1.135300e+01
0,1.499100e+00,-1.597300e-01,-7.689800e-01,1.044400e+01
-1.096300e+00,1.289600e+00,-1.583700e-01,-7.689800e-01,1.042800e+01
-1.132300e+00,1.302100e+00,-1.584500e-01,-7.689800e-01,1.088700e+01
-1.154900e+00,1.330500e+00,-1.586400e-01,-7.689800e-01,1.043200e+01
-1.649300e+00,1.536800e+00,-1.599800e-01,-7.689800e-01,1.063300e+01
-1.656700e+00,1.596800e+00,-1.603700e-01,-7.689800e-01,1.036200e+01
-2.029900e+00,1.883200e+00,-1.622300e-01,-7.689800e-01,1.038400e+01
-1.922700e+00,2.067900e+00,-1.634300e-01,-7.689800e-01,1.167800e+01
-1.901700e+00,2.134600e+00,-1.638600e-01,-7.689800e-01,1.209800e+01
-1.947500e+00,2.138600e+00,-1.638900e-01,-7.689800e-01,1.155600e+01
-1.706900e+00,2.698400e+00,-1.675200e-01,-7.689800e-01,1.093400e+01
-1.725400e+00,2.744000e+00,-1.678200e-01,-7.689800e-01,1.040400e+01
-2.747500e+00,2.478200e+00,-1.660900e-01,-7.689800e-01,1.022500e+01
-2.685800e+00,2.592000e+00,-1.668300e-01,-7.689800e-01,1.078700e+01
-2.504700e+00,2.817000e+00,-1.682900e-01,-7.689800e-01,1.047500e+01
-3.062300e+00,2.905400e+00,-1.688600e-01,-7.689800e-01,1.014800e+01
-3.087400e+00,2.967500e+00,-1.692700e-01,-7.689800e-01,1.047000e+01
-3.078700e+00,3.041500e+00,-1.697500e-01,-7.689800e-01,1.017300e+01
-5.786600e+00,5.612400e-01,-1.536400e-01,-7.689800e-01,1.024800e+01
2.237300e-02,1.426300e+00,-1.592600e-01,-7.369400e-01,1.157000e+01
1.145900e-02,1.452100e+00,-1.594300e-01,-7.369400e-01,1.244800e+01
0,1.479100e+00,-1.596000e-01,-7.369400e-01,1.235000e+01
0,1.512500e+00,-1.598200e-01,-7.369400e-01,1.130300e+01
-1.096300e+00,1.286500e+00,-1.583500e-01,-7.369400e-01,1.053400e+01
-1.132300e+00,1.290000e+00,-1.583800e-01,-7.369400e-01,1.100700e+01
-1.182800e+00,1.280600e+00,-1.583100e-01,-7.369400e-01,1.058000e+01
-1.676300e+00,1.440100e+00,-1.593500e-01,-7.369400e-01,1.065900e+01
-1.684800e+00,1.491900e+00,-1.596900e-01,-7.369400e-01,1.084900e+01
-1.692700e+00,1.551500e+00,-1.600700e-01,-7.369400e-01,1.050000e+01
-2.619200e-01,2.757200e+00,-1.679000e-01,-7.369400e-01,1.030500e+01
-3.094000e-01,2.772600e+00,-1.680000e-01,-7.369400e-01,1.075700e+01
-1.946400e+00,2.094600e+00,-1.636000e-01,-7.369400e-01,1.103000e+01
-1.992800e+00,2.103500e+00,-1.636600e-01,-7.369400e-01,1.072600e+01
-1.152500e+00,2.825700e+00,-1.683500e-01,-7.369400e-01,1.113400e+01
-1.706900e+00,2.721800e+00,-1.676700e-01,-7.369400e-01,1.119100e+01
-1.674700e+00,2.782500e+00,-1.680700e-01,-7.369400e-01,1.093100e+01
-2.834200e+00,2.381000e+00,-1.654600e-01,-7.369400e-01,1.029400e+01
-2.861000e+00,2.400300e+00,-1.655800e-01,-7.369400e-01,1.041800e+01
-3.274100e-02,1.280200e+00,-1.583100e-01,-7.049000e-01,9.763500e+00
1.118600e-02,1.423000e+00,-1.592400e-01,-7.049000e-01,1.134600e+01
1.145900e-02,1.453700e+00,-1.594400e-01,-7.049000e-01,1.218000e+01
0,1.481000e+00,-1.596200e-01,-7.049000e-01,1.207500e+01
-1.200500e-02,1.514900e+00,-1.598400e-01,-7.049000e-01,1.105700e+01
-1.069500e+00,1.293400e+00,-1.584000e-01,-7.049000e-01,1.031200e+01
-1.105000e+00,1.300900e+00,-1.584500e-01,-7.049000e-01,1.095400e+01
-1.168800e+00,1.274800e+00,-1.582800e-01,-7.049000e-01,1.051700e+01
-1.658900e+00,1.468800e+00,-1.595400e-01,-7.049000e-01,1.077400e+01
-1.684800e+00,1.489900e+00,-1.596700e-01,-7.049000e-01,1.085200e+01
-1.692700e+00,1.500900e+00,-1.597400e-01,-7.049000e-01,1.021500e+01
-1.133400e+00,1.904000e+00,-1.623600e-01,-7.049000e-01,9.837500e+00
-2.210000e-01,2.787200e+00,-1.681000e-01,-7.049000e-01,1.059400e+01
-1.834600e+00,2.198800e+00,-1.642800e-01,-7.049000e-01,1.036200e+01
-9.969500e-01,2.820400e+00,-1.683100e-01,-7.049000e-01,1.087000e+01
-1.080400e+00,2.839100e+00,-1.684300e-01,-7.049000e-01,1.140800e+01
-1.141300e+00,2.829600e+00,-1.683700e-01,-7.049000e-01,1.092600e+01
-1.706900e+00,2.715300e+00,-1.676300e-01,-7.049000e-01,1.055400e+01
-1.674700e+00,2.780600e+00,-1.680500e-01,-7.049000e-01,1.037200e+01
3.192200e-02,1.243000e+00,-1.580700e-01,-6.728600e-01,9.762700e+00
3.355900e-02,1.429600e+00,-1.592800e-01,-6.728600e-01,1.018500e+01
0,1.456000e+00,-1.594500e-01,-6.728600e-01,1.100200e+01
-1.173200e-02,1.477600e+00,-1.595900e-01,-6.728600e-01,1.090800e+01
-1.036800e+00,1.395600e+00,-1.590600e-01,-6.728600e-01,1.019600e+01
-1.676300e+00,1.434800e+00,-1.593200e-01,-6.728600e-01,1.055300e+01
-1.684800e+00,1.440600e+00,-1.593500e-01,-6.728600e-01,1.080800e+01
-9.543900e-01,2.085900e+00,-1.635400e-01,-6.728600e-01,1.119000e+01
-1.005400e+00,2.080900e+00,-1.635100e-01,-6.728600e-01,1.144600e+01
-1.076100e+00,2.085900e+00,-1.635400e-01,-6.728600e-01,1.106500e+01
-2.331100e+00,2.019600e+00,-1.631100e-01,-6.728600e-01,1.041000e+01
-2.406400e+00,1.993900e+00,-1.629500e-01,-6.728600e-01,1.052500e+01
-1.759300e+00,3.173700e+00,-1.706100e-01,-6.728600e-01,1.023600e+01
-9.044600e-01,2.081500e+00,-1.635100e-01,-6.408200e-01,1.024100e+01
-9.363800e-01,2.098000e+00,-1.636200e-01,-6.408200e-01,1.113900e+01
-1.005400e+00,2.095200e+00,-1.636000e-01,-6.408200e-01,1.156300e+01
-1.094600e+00,2.081300e+00,-1.635100e-01,-6.408200e-01,1.145000e+01
-1.167200e+00,2.089700e+00,-1.635700e-01,-6.408200e-01,1.075600e+01
-1.834600e+00,2.160200e+00,-1.640300e-01,-6.408200e-01,1.034100e+01
-1.629900e+00,3.204500e+00,-1.708100e-01,-6.408200e-01,1.043700e+01
-1.730900e+00,3.178900e+00,-1.706400e-01,-6.408200e-01,1.069900e+01
-9.931300e-02,8.751100e-01,-1.556800e-01,-6.087800e-01,1.043500e+01
-9.494800e-02,9.111000e-01,-1.559200e-01,-6.087800e-01,1.066100e+01
-1.309600e-01,9.653600e-01,-1.562700e-01,-6.087800e-01,9.777300e+00
5.391300e-01,1.707500e+00,-1.610900e-01,-6.087800e-01,1.059100e+01
5.495000e-01,1.730100e+00,-1.612300e-01,-6.087800e-01,1.085200e+01
5.598600e-01,1.715300e+00,-1.611400e-01,-6.087800e-01,1.022300e+01
-1.057500e+00,2.113700e+00,-1.637200e-01,-6.087800e-01,1.019400e+01
-1.573700e+00,3.223900e+00,-1.709300e-01,-6.087800e-01,1.035300e+01
-1.730900e+00,3.180600e+00,-1.706500e-01,-6.087800e-01,1.062000e+01
-1.890800e+00,3.093900e+00,-1.700900e-01,-6.087800e-01,1.008300e+01
-2.627400e+00,2.656700e+00,-1.672500e-01,-6.087800e-01,1.016300e+01
-1.694300e-01,9.186500e-01,-1.559600e-01,-5.767400e-01,9.534500e+00
-1.222300e-01,9.101300e-01,-1.559100e-01,-5.767400e-01,1.036600e+01
-1.107700e-01,9.058500e-01,-1.558800e-01,-5.767400e-01,1.069000e+01
-1.391500e-01,9.440900e-01,-1.561300e-01,-5.767400e-01,1.003000e+01
5.249400e-01,1.716400e+00,-1.611400e-01,-5.767400e-01,1.053300e+01
5.495000e-01,1.738900e+00,-1.612900e-01,-5.767400e-01,1.068400e+01
5.451300e-01,1.736600e+00,-1.612800e-01,-5.767400e-01,9.859000e+00
-1.787600e+00,3.160300e+00,-1.705200e-01,-5.767400e-01,1.041300e+01
-6.875500e-02,7.284700e-01,-1.547300e-01,-5.447000e-01,9.600600e+00
-4.747400e-02,8.140600e-01,-1.552900e-01,-5.447000e-01,1.050100e+01
-6.548100e-02,9.221100e-01,-1.559900e-01,-5.447000e-01,1.009100e+01
-1.776200e+00,6.248200e+00,-1.905700e-01,-5.447000e-01,1.049100e+01
-1.706900e+00,6.017700e+00,-1.890700e-01,-5.126600e-01,1.012700e+01
-1.766600e+00,6.211400e+00,-1.903300e-01,-5.126600e-01,1.174100e+01
-1.826900e+00,6.233500e+00,-1.904700e-01,-5.126600e-01,1.195200e+01
-1.887800e+00,6.246300e+00,-1.905600e-01,-5.126600e-01,1.037700e+01
-1.795300e+00,6.293200e+00,-1.908600e-01,-5.126600e-01,1.022300e+01
-2.231300e+00,2.042300e+00,-1.632600e-01,-4.806200e-01,9.963800e+00
-2.232900e+00,2.081000e+00,-1.635100e-01,-4.806200e-01,9.967500e+00
-1.867600e+00,6.184700e+00,-1.901600e-01,-4.806200e-01,1.106400e+01
-1.979200e+00,6.181400e+00,-1.901300e-01,-4.806200e-01,1.047300e+01
-1.785700e+00,6.281500e+00,-1.907800e-01,-4.806200e-01,1.076800e+01
-1.795300e+00,6.315100e+00,-1.910000e-01,-4.806200e-01,1.125900e+01
-1.701700e+00,6.376000e+00,-1.914000e-01,-4.806200e-01,1.029300e+01
-1.725400e+00,6.261100e+00,-1.906500e-01,-4.485700e-01,1.018000e+01
-1.734700e+00,6.296000e+00,-1.908800e-01,-4.485700e-01,1.068700e+01
-1.590100e+00,6.370100e+00,-1.913600e-01,-4.485700e-01,1.022000e+01
1.451500e-01,9.288200e+00,-2.103100e-01,-4.165300e-01,1.022000e+01
2.185400e-01,9.309500e+00,-2.104400e-01,-4.165300e-01,1.115000e+01
2.193600e-01,9.311000e+00,-2.104500e-01,-4.165300e-01,1.097000e+01
2.177200e-01,9.283000e+00,-2.102700e-01,-3.844900e-01,1.031100e+01
2.913900e-01,9.318900e+00,-2.105100e-01,-3.844900e-01,1.133900e+01
2.924800e-01,9.342100e+00,-2.106600e-01,-3.844900e-01,1.117300e+01
4.125300e-01,4.668100e-01,-1.530300e-01,-2.563300e-01,9.482700e+00
4.321800e-01,4.535100e-01,-1.529400e-01,-2.563300e-01,9.962200e+00
4.455400e-01,4.749500e-01,-1.530800e-01,-2.563300e-01,9.486200e+00
0,0,-1.500000e-01,-1.281600e-01,9.139300e+00
4.068000e-01,4.747600e-01,-1.530800e-01,-1.281600e-01,9.891600e+00
4.141700e-01,5.328600e-01,-1.534600e-01,-1.281600e-01,1.026400e+01
4.078900e-01,6.196500e-01,-1.540200e-01,-1.281600e-01,9.628600e+00
-9.388400e-01,8.874800e-01,-1.557600e-01,-1.281600e-01,1.008800e+01
0,0,-1.500000e-01,-9.612300e-02,9.697700e+00
-3.219500e-02,9.963400e-03,-1.500600e-01,-9.612300e-02,9.360200e+00
4.229000e-01,4.633000e-01,-1.530100e-01,-9.612300e-02,9.757100e+00
2.695600e-01,2.286400e-01,-1.514800e-01,-9.612300e-02,1.090300e+01
5.500400e-01,7.735000e-01,-1.550200e-01,-9.612300e-02,1.245700e+01
5.459500e-01,7.919100e-01,-1.551400e-01,-9.612300e-02,1.266500e+01
5.484000e-01,8.059200e-01,-1.552300e-01,-9.612300e-02,1.194500e+01
-9.691200e-01,6.718700e-01,-1.543600e-01,-9.612300e-02,1.028100e+01
0,0,-1.500000e-01,-6.408200e-02,1.042400e+01
-1.091400e-03,3.348000e-02,-1.502200e-01,-6.408200e-02,1.019400e+01
2.553800e-01,8.651300e-02,-1.505600e-01,-6.408200e-02,1.129500e+01
5.304000e-01,7.494700e-01,-1.548700e-01,-6.408200e-02,1.270000e+01
5.118400e-01,7.677400e-01,-1.549800e-01,-6.408200e-02,1.379300e+01
5.222100e-01,7.865100e-01,-1.551100e-01,-6.408200e-02,1.405200e+01
5.402200e-01,8.152900e-01,-1.552900e-01,-6.408200e-02,1.339600e+01
5.666900e-01,8.604500e-01,-1.555900e-01,-6.408200e-02,1.178500e+01
0,0,-1.500000e-01,-3.204100e-02,1.576900e+01
-4.092600e-02,1.685700e-02,-1.501100e-01,-3.204100e-02,1.515600e+01
-7.312100e-02,6.342400e-02,-1.504100e-01,-3.204100e-02,1.429600e+01
-1.091400e-02,1.343600e-01,-1.508700e-01,-3.204100e-02,1.349700e+01
-3.274100e-03,1.325900e-01,-1.508600e-01,-3.204100e-02,1.266300e+01
9.549300e-03,1.641900e-01,-1.510700e-01,-3.204100e-02,1.206900e+01
5.525000e-01,6.584500e-01,-1.542800e-01,-3.204100e-02,1.318300e+01
5.533200e-01,7.188200e-01,-1.546700e-01,-3.204100e-02,1.492800e+01
5.598600e-01,7.380900e-01,-1.547900e-01,-3.204100e-02,1.573800e+01
5.576800e-01,7.543800e-01,-1.549000e-01,-3.204100e-02,1.579000e+01
5.617700e-01,7.726700e-01,-1.550200e-01,-3.204100e-02,1.511600e+01
5.565900e-01,8.075800e-01,-1.552400e-01,-3.204100e-02,1.362400e+01
-8.627100e-01,8.029400e-01,-1.552100e-01,-3.204100e-02,1.090000e+01
-9.262900e-01,6.115100e-01,-1.539700e-01,-3.204100e-02,1.269900e+01
-9.331100e-01,5.381700e-01,-1.534900e-01,-3.204100e-02,1.307100e+01
-9.691200e-01,2.782600e-02,-1.501800e-01,-3.204100e-02,1.203000e+01
-1.036800e+00,8.080000e-01,-1.552500e-01,-3.204100e-02,1.099800e+01
-1.032100e+00,7.991400e-01,-1.551900e-01,-3.204100e-02,1.080200e+01
